ply
format ascii 1.0
comment VCGLIB generated
element vertex 1553
property float x
property float y
property float z
element face 0
property list uchar int vertex_indices
end_header
-0.610457 -0.808481 -0.348374 
-0.615809 -0.805517 -0.346562 
-0.621243 -0.802882 -0.344833 
-0.626595 -0.799341 -0.342528 
-0.631947 -0.795636 -0.34014 
-0.637217 -0.791601 -0.337505 
-0.642569 -0.787485 -0.33487 
-0.647921 -0.783697 -0.3324 
-0.653273 -0.779415 -0.329518 
-0.658543 -0.77431 -0.326142 
-0.778921 -0.928036 -0.429724 
-0.784356 -0.930753 -0.431618 
-0.789708 -0.932894 -0.4331 
-0.794977 -0.934376 -0.43417 
-0.800329 -0.935529 -0.434911 
-0.805599 -0.93627 -0.435488 
-0.810869 -0.93627 -0.43557 
-0.816138 -0.936023 -0.435488 
-0.821408 -0.935117 -0.434994 
-0.82676 -0.933306 -0.433841 
-0.83203 -0.930424 -0.431947 
-0.837299 -0.925978 -0.429148 
-0.500288 -0.825854 -0.353479 
-0.506052 -0.826019 -0.353726 
-0.511816 -0.825937 -0.353808 
-0.517579 -0.825854 -0.353726 
-0.523425 -0.825854 -0.353808 
-0.529107 -0.825854 -0.353891 
-0.53487 -0.82569 -0.353808 
-0.540634 -0.825525 -0.353891 
-0.546151 -0.824537 -0.353314 
-0.551667 -0.823137 -0.352408 
-0.557266 -0.822067 -0.35175 
-0.563112 -0.822725 -0.352244 
-0.568794 -0.821984 -0.351914 
-0.57431 -0.820832 -0.351091 
-0.579909 -0.819597 -0.350432 
-0.585426 -0.81795 -0.349444 
-0.590943 -0.816138 -0.348291 
-0.596459 -0.814327 -0.347139 
-0.601894 -0.812186 -0.345739 
-0.607328 -0.809798 -0.344257 
-0.612762 -0.80741 -0.342775 
-0.618279 -0.80494 -0.34121 
-0.623631 -0.801894 -0.339152 
-0.628983 -0.798271 -0.336929 
-0.634335 -0.794813 -0.334623 
-0.639769 -0.79119 -0.332318 
-0.645121 -0.78732 -0.329765 
-0.650473 -0.783121 -0.326966 
-0.655825 -0.778345 -0.323837 
-0.661095 -0.773405 -0.320543 
-0.778757 -0.929765 -0.426019 
-0.784109 -0.932318 -0.42783 
-0.789461 -0.934459 -0.429312 
-0.794813 -0.936105 -0.430465 
-0.800082 -0.937258 -0.431371 
-0.805434 -0.937752 -0.431783 
-0.810704 -0.937917 -0.431947 
-0.815891 -0.937587 -0.431783 
-0.821243 -0.936682 -0.431289 
-0.826513 -0.935117 -0.430301 
-0.831783 -0.932153 -0.428324 
-0.835735 -0.929024 -0.426348 
-0.499959 -0.826431 -0.349527 
-0.505723 -0.826184 -0.349444 
-0.511404 -0.825772 -0.34928 
-0.517168 -0.825854 -0.349444 
-0.522931 -0.825854 -0.349444 
-0.528777 -0.825772 -0.349527 
-0.534459 -0.82569 -0.349527 
-0.540222 -0.825196 -0.349197 
-0.545821 -0.82429 -0.348703 
-0.551503 -0.824043 -0.348621 
-0.556937 -0.821902 -0.347221 
-0.562618 -0.82149 -0.347056 
-0.568464 -0.822231 -0.347633 
-0.573981 -0.820832 -0.346809 
-0.57958 -0.819432 -0.345986 
-0.585097 -0.818032 -0.34508 
-0.590613 -0.816138 -0.343928 
-0.59613 -0.814492 -0.342857 
-0.601647 -0.812433 -0.34154 
-0.607081 -0.810128 -0.34014 
-0.612598 -0.807987 -0.338823 
-0.618032 -0.805352 -0.337093 
-0.623466 -0.80247 -0.3352 
-0.628818 -0.79893 -0.332894 
-0.634253 -0.795471 -0.330671 
-0.639605 -0.791849 -0.328366 
-0.644957 -0.787896 -0.325731 
-0.650391 -0.783779 -0.323096 
-0.655743 -0.779662 -0.320296 
-0.659695 -0.776122 -0.317991 
-0.662413 -0.773569 -0.316262 
-0.665047 -0.770688 -0.314286 
-0.775875 -0.929436 -0.421573 
-0.781227 -0.932483 -0.423713 
-0.786579 -0.934788 -0.425278 
-0.791931 -0.936682 -0.426595 
-0.797283 -0.937835 -0.427501 
-0.802552 -0.938576 -0.427995 
-0.807822 -0.939234 -0.428571 
-0.813092 -0.939152 -0.428571 
-0.818444 -0.938246 -0.428077 
-0.823713 -0.937258 -0.427419 
-0.828983 -0.934953 -0.425937 
-0.834253 -0.931083 -0.423466 
-0.838205 -0.927295 -0.420996 
-0.496665 -0.826101 -0.345245 
-0.502511 -0.826348 -0.34541 
-0.508357 -0.826348 -0.345492 
-0.514121 -0.826348 -0.345574 
-0.519885 -0.826101 -0.345492 
-0.525648 -0.825937 -0.345492 
-0.53133 -0.825937 -0.345574 
-0.537093 -0.825607 -0.34541 
-0.542857 -0.82536 -0.345327 
-0.548538 -0.824949 -0.34508 
-0.554137 -0.823713 -0.344339 
-0.559654 -0.822231 -0.343434 
-0.565253 -0.82149 -0.343022 
-0.571099 -0.821902 -0.343434 
-0.576616 -0.820749 -0.342692 
-0.582215 -0.819267 -0.341787 
-0.587732 -0.817291 -0.340552 
-0.593248 -0.815562 -0.339481 
-0.598847 -0.813998 -0.338576 
-0.604282 -0.811939 -0.337258 
-0.609798 -0.809634 -0.335776 
-0.615233 -0.807081 -0.334129 
-0.620667 -0.804364 -0.3324 
-0.626101 -0.801482 -0.330589 
-0.631536 -0.798189 -0.328448 
-0.636888 -0.794566 -0.32606 
-0.64224 -0.790943 -0.323672 
-0.646357 -0.788061 -0.321779 
-0.650391 -0.78485 -0.31972 
-0.654426 -0.781886 -0.317744 
-0.657061 -0.77958 -0.31618 
-0.659778 -0.777192 -0.314615 
-0.662413 -0.774722 -0.312968 
-0.66513 -0.772087 -0.311157 
-0.77851 -0.932483 -0.419597 
-0.783944 -0.935117 -0.42149 
-0.789296 -0.937093 -0.42289 
-0.794566 -0.938493 -0.423878 
-0.799918 -0.939646 -0.424702 
-0.805187 -0.940305 -0.425196 
-0.810457 -0.940469 -0.42536 
-0.815727 -0.940222 -0.425278 
-0.821079 -0.939317 -0.424784 
-0.826348 -0.937505 -0.423631 
-0.831618 -0.934459 -0.421655 
-0.83557 -0.931165 -0.419514 
-0.838205 -0.928366 -0.417703 
-0.496336 -0.826101 -0.340552 
-0.502264 -0.826513 -0.341046 
-0.508028 -0.826513 -0.341046 
-0.513874 -0.826513 -0.341046 
-0.519555 -0.826348 -0.341128 
-0.525401 -0.826431 -0.34121 
-0.531165 -0.826101 -0.341046 
-0.536846 -0.825772 -0.340881 
-0.542528 -0.825443 -0.340799 
-0.548291 -0.824784 -0.340469 
-0.55389 -0.823878 -0.339893 
-0.559489 -0.822725 -0.339234 
-0.565006 -0.821243 -0.338246 
-0.57077 -0.82149 -0.338493 
-0.576451 -0.820914 -0.338246 
-0.58205 -0.819432 -0.33734 
-0.587567 -0.817538 -0.336105 
-0.593084 -0.815974 -0.3352 
-0.5986 -0.813833 -0.333882 
-0.604117 -0.811857 -0.332647 
-0.609634 -0.810045 -0.331412 
-0.61515 -0.807904 -0.330095 
-0.620585 -0.805187 -0.328366 
-0.626019 -0.802058 -0.326389 
-0.631453 -0.798847 -0.324249 
-0.636805 -0.79506 -0.321861 
-0.64224 -0.791684 -0.319638 
-0.647674 -0.787814 -0.317085 
-0.653108 -0.784273 -0.31478 
-0.658543 -0.780156 -0.312063 
-0.662495 -0.776451 -0.30951 
-0.66513 -0.773816 -0.307781 
-0.775793 -0.93273 -0.415315 
-0.781144 -0.935364 -0.417209 
-0.786496 -0.937505 -0.418691 
-0.791848 -0.939234 -0.419926 
-0.7972 -0.940716 -0.420914 
-0.80247 -0.94154 -0.421573 
-0.80774 -0.942034 -0.422067 
-0.813092 -0.941869 -0.421902 
-0.818361 -0.941128 -0.421573 
-0.823631 -0.939893 -0.420749 
-0.828901 -0.937505 -0.419185 
-0.83417 -0.933635 -0.416715 
-0.49296 -0.826266 -0.335282 
-0.498724 -0.826266 -0.335447 
-0.50457 -0.826513 -0.335694 
-0.510416 -0.826513 -0.335776 
-0.516097 -0.826019 -0.335529 
-0.521943 -0.826101 -0.335694 
-0.527707 -0.826101 -0.335694 
-0.533471 -0.826019 -0.335694 
-0.539234 -0.825607 -0.335529 
-0.544833 -0.824784 -0.335117 
-0.550597 -0.824619 -0.335035 
-0.556278 -0.823631 -0.334541 
-0.561877 -0.822643 -0.333882 
-0.567394 -0.821408 -0.333141 
-0.573075 -0.820667 -0.33273 
-0.578839 -0.820173 -0.332483 
-0.584356 -0.818608 -0.331577 
-0.589872 -0.816879 -0.330506 
-0.595389 -0.815233 -0.329436 
-0.600988 -0.813339 -0.328201 
-0.606505 -0.811116 -0.326884 
-0.612021 -0.809222 -0.325648 
-0.617538 -0.806752 -0.324084 
-0.622972 -0.804529 -0.322684 
-0.628407 -0.801482 -0.320708 
-0.633841 -0.798271 -0.31865 
-0.639275 -0.794977 -0.316509 
-0.64471 -0.79119 -0.314039 
-0.650144 -0.787485 -0.311569 
-0.655578 -0.783615 -0.309016 
-0.661013 -0.779662 -0.306381 
-0.666365 -0.774475 -0.302841 
-0.775545 -0.934294 -0.411363 
-0.78098 -0.937258 -0.413421 
-0.786249 -0.939234 -0.414739 
-0.791601 -0.940963 -0.415974 
-0.796953 -0.942363 -0.416962 
-0.802223 -0.943104 -0.41762 
-0.807493 -0.943598 -0.418032 
-0.812845 -0.943516 -0.418032 
-0.818114 -0.942939 -0.417703 
-0.823384 -0.941622 -0.416879 
-0.828654 -0.93907 -0.415233 
-0.833923 -0.9352 -0.412762 
-0.492137 -0.825196 -0.329107 
-0.498065 -0.825525 -0.329436 
-0.503911 -0.825772 -0.329683 
-0.509675 -0.825607 -0.329683 
-0.515521 -0.825854 -0.32993 
-0.521367 -0.826019 -0.330095 
-0.527048 -0.82569 -0.330012 
-0.532812 -0.825525 -0.32993 
-0.538576 -0.825113 -0.329765 
-0.544339 -0.825031 -0.329765 
-0.549938 -0.823796 -0.329024 
-0.55562 -0.823219 -0.328777 
-0.561301 -0.822725 -0.32853 
-0.5669 -0.821408 -0.327707 
-0.572499 -0.819844 -0.326719 
-0.578263 -0.819679 -0.326719 
-0.583779 -0.818526 -0.32606 
-0.589378 -0.817044 -0.325154 
-0.594977 -0.815315 -0.324002 
-0.600494 -0.813174 -0.322684 
-0.606011 -0.811198 -0.321449 
-0.61161 -0.809387 -0.320296 
-0.617126 -0.807246 -0.318979 
-0.622643 -0.80494 -0.317497 
-0.628077 -0.802388 -0.31585 
-0.633594 -0.799341 -0.313874 
-0.639028 -0.796048 -0.311733 
-0.644463 -0.79259 -0.309428 
-0.649897 -0.788967 -0.307122 
-0.655414 -0.785426 -0.304734 
-0.660848 -0.781639 -0.302182 
-0.666282 -0.776945 -0.299053 
-0.671717 -0.77217 -0.295842 
-0.775216 -0.935776 -0.407163 
-0.780568 -0.938493 -0.409057 
-0.78592 -0.940716 -0.410622 
-0.791272 -0.942445 -0.411857 
-0.796624 -0.943681 -0.41268 
-0.801894 -0.944422 -0.413339 
-0.807246 -0.944916 -0.413751 
-0.812515 -0.94508 -0.413915 
-0.817785 -0.944422 -0.413586 
-0.823055 -0.943022 -0.41268 
-0.828324 -0.940716 -0.411198 
-0.833594 -0.936846 -0.408646 
-0.488925 -0.825113 -0.324249 
-0.494854 -0.825607 -0.32466 
-0.5007 -0.825525 -0.324743 
-0.506464 -0.825031 -0.324496 
-0.512227 -0.825113 -0.32466 
-0.518156 -0.825772 -0.325154 
-0.523919 -0.825443 -0.32499 
-0.529683 -0.825278 -0.32499 
-0.535447 -0.824949 -0.324907 
-0.541128 -0.824455 -0.324578 
-0.546892 -0.82396 -0.324413 
-0.552573 -0.823466 -0.324166 
-0.558337 -0.822972 -0.323919 
-0.564018 -0.822314 -0.323508 
-0.569617 -0.821161 -0.322849 
-0.575216 -0.819761 -0.321943 
-0.580897 -0.819103 -0.321614 
-0.586496 -0.817703 -0.32079 
-0.592013 -0.816138 -0.319802 
-0.597612 -0.814409 -0.318732 
-0.603129 -0.812515 -0.317497 
-0.608728 -0.810869 -0.316509 
-0.614245 -0.808893 -0.315274 
-0.619761 -0.806505 -0.313792 
-0.62536 -0.804446 -0.312392 
-0.630877 -0.801729 -0.310663 
-0.636229 -0.798436 -0.308522 
-0.641746 -0.79506 -0.306299 
-0.647262 -0.792013 -0.304323 
-0.652697 -0.78839 -0.301853 
-0.658213 -0.784767 -0.299547 
-0.663648 -0.780733 -0.29683 
-0.669082 -0.776369 -0.293866 
-0.674599 -0.771758 -0.290737 
-0.775298 -0.937587 -0.403705 
-0.78065 -0.94014 -0.405517 
-0.786002 -0.942198 -0.406999 
-0.791354 -0.94401 -0.408234 
-0.796706 -0.94508 -0.409057 
-0.801976 -0.945986 -0.409798 
-0.807246 -0.946315 -0.410045 
-0.812598 -0.946315 -0.41021 
-0.817867 -0.945739 -0.409798 
-0.823137 -0.944175 -0.40881 
-0.828324 -0.941704 -0.407328 
-0.833676 -0.937999 -0.404858 
-0.837629 -0.933471 -0.401894 
-0.489419 -0.824866 -0.320049 
-0.495266 -0.825113 -0.320296 
-0.501194 -0.825196 -0.320461 
-0.506958 -0.825443 -0.320708 
-0.512804 -0.82536 -0.320708 
-0.51865 -0.82536 -0.320873 
-0.524413 -0.82536 -0.320873 
-0.530259 -0.825278 -0.320955 
-0.535941 -0.824702 -0.320626 
-0.541704 -0.824455 -0.320543 
-0.547386 -0.823631 -0.320049 
-0.553067 -0.823219 -0.319885 
-0.558831 -0.822725 -0.319638 
-0.564512 -0.822067 -0.319308 
-0.570193 -0.821161 -0.318814 
-0.575792 -0.819844 -0.317991 
-0.581474 -0.81902 -0.317497 
-0.587073 -0.817867 -0.316756 
-0.592672 -0.816138 -0.315768 
-0.598189 -0.814162 -0.314533 
-0.603705 -0.812351 -0.31338 
-0.609304 -0.810786 -0.312392 
-0.614821 -0.808563 -0.310992 
-0.62042 -0.806505 -0.309675 
-0.625937 -0.804282 -0.308193 
-0.631453 -0.801729 -0.306546 
-0.636888 -0.7986 -0.30457 
-0.642404 -0.795224 -0.302264 
-0.647921 -0.791931 -0.300124 
-0.653355 -0.788802 -0.297983 
-0.658872 -0.785179 -0.295677 
-0.662989 -0.782627 -0.293948 
-0.665788 -0.780733 -0.292631 
-0.668506 -0.77851 -0.291149 
-0.671223 -0.776204 -0.289584 
-0.67394 -0.773734 -0.287937 
-0.676739 -0.771099 -0.286208 
-0.77184 -0.936764 -0.399012 
-0.775957 -0.939317 -0.400823 
-0.781392 -0.941869 -0.402552 
-0.786744 -0.943516 -0.403788 
-0.792013 -0.945327 -0.405023 
-0.797365 -0.946562 -0.405928 
-0.802635 -0.947303 -0.406505 
-0.807987 -0.947386 -0.406669 
-0.813256 -0.947303 -0.406752 
-0.818526 -0.946398 -0.406175 
-0.823796 -0.944998 -0.40527 
-0.829065 -0.942281 -0.403541 
-0.833018 -0.939317 -0.401647 
-0.835735 -0.936682 -0.399835 
-0.487443 -0.823878 -0.315274 
-0.493372 -0.82429 -0.315603 
-0.4993 -0.824949 -0.31618 
-0.505146 -0.825031 -0.316344 
-0.510992 -0.824949 -0.316344 
-0.516756 -0.825031 -0.316427 
-0.522602 -0.824866 -0.316427 
-0.528448 -0.824866 -0.316509 
-0.534212 -0.824702 -0.316509 
-0.539975 -0.82429 -0.316344 
-0.545574 -0.823549 -0.315932 
-0.551338 -0.823219 -0.315768 
-0.557102 -0.823055 -0.315685 
-0.562783 -0.822314 -0.315274 
-0.568464 -0.82149 -0.314862 
-0.573981 -0.819761 -0.313709 
-0.579662 -0.818691 -0.313133 
-0.585426 -0.818361 -0.312886 
-0.591025 -0.817126 -0.312145 
-0.596624 -0.81515 -0.31091 
-0.602058 -0.813009 -0.309592 
-0.607657 -0.811198 -0.30844 
-0.613256 -0.809222 -0.307205 
-0.618773 -0.807163 -0.305887 
-0.624372 -0.805023 -0.304487 
-0.629889 -0.802635 -0.302923 
-0.635406 -0.800082 -0.301276 
-0.640922 -0.7972 -0.299465 
-0.646439 -0.793907 -0.297242 
-0.651873 -0.790449 -0.294936 
-0.65739 -0.78732 -0.292795 
-0.661507 -0.78452 -0.290902 
-0.664224 -0.78238 -0.289502 
-0.667023 -0.780403 -0.288184 
-0.669823 -0.778427 -0.286867 
-0.67254 -0.776369 -0.285467 
-0.67534 -0.774063 -0.283985 
-0.678057 -0.771758 -0.282421 
-0.774557 -0.940058 -0.397118 
-0.779909 -0.942775 -0.399012 
-0.785261 -0.944833 -0.400412 
-0.790613 -0.946151 -0.4014 
-0.795965 -0.947303 -0.402223 
-0.801317 -0.948209 -0.402964 
-0.806587 -0.948703 -0.403376 
-0.811857 -0.948621 -0.403376 
-0.817126 -0.947797 -0.402882 
-0.822396 -0.946315 -0.401976 
-0.827666 -0.943598 -0.400247 
-0.831618 -0.94121 -0.398683 
-0.834253 -0.938905 -0.397118 
-0.488761 -0.823055 -0.309757 
-0.494771 -0.823549 -0.310251 
-0.500618 -0.823713 -0.310416 
-0.506464 -0.823796 -0.310498 
-0.51231 -0.823878 -0.310663 
-0.518156 -0.824125 -0.31091 
-0.524002 -0.82396 -0.31091 
-0.529765 -0.823878 -0.31091 
-0.535611 -0.823713 -0.31091 
-0.541375 -0.823549 -0.31091 
-0.547056 -0.822808 -0.310498 
-0.552738 -0.822314 -0.310169 
-0.558501 -0.821984 -0.310004 
-0.564265 -0.821326 -0.309675 
-0.569864 -0.82042 -0.309181 
-0.575463 -0.819103 -0.30844 
-0.581145 -0.818197 -0.307781 
-0.586908 -0.81762 -0.307534 
-0.592425 -0.815891 -0.306464 
-0.598024 -0.814245 -0.305393 
-0.603623 -0.812433 -0.30424 
-0.609222 -0.810622 -0.303088 
-0.614821 -0.80881 -0.301935 
-0.620338 -0.806916 -0.3007 
-0.625937 -0.804693 -0.2993 
-0.631453 -0.802388 -0.297818 
-0.637052 -0.799835 -0.296171 
-0.642569 -0.796953 -0.294195 
-0.648003 -0.793825 -0.292137 
-0.65352 -0.790449 -0.289914 
-0.659037 -0.787238 -0.28769 
-0.664553 -0.783779 -0.285385 
-0.670152 -0.779909 -0.282832 
-0.675669 -0.77604 -0.280198 
-0.679786 -0.772417 -0.27781 
-0.773487 -0.940963 -0.392919 
-0.778921 -0.943598 -0.39473 
-0.784273 -0.945657 -0.396212 
-0.789625 -0.947303 -0.397365 
-0.794977 -0.948621 -0.398353 
-0.800247 -0.949444 -0.39893 
-0.805599 -0.949856 -0.399259 
-0.810869 -0.949691 -0.399341 
-0.816138 -0.949197 -0.399012 
-0.821408 -0.947633 -0.398024 
-0.826678 -0.94541 -0.396542 
-0.831947 -0.94154 -0.394072 
-0.487361 -0.821243 -0.303005 
-0.493454 -0.822067 -0.303746 
-0.499382 -0.822396 -0.303993 
-0.505146 -0.822231 -0.303993 
-0.511075 -0.822725 -0.304405 
-0.517003 -0.822972 -0.30457 
-0.522767 -0.82289 -0.304652 
-0.528613 -0.822808 -0.304652 
-0.534376 -0.822643 -0.304652 
-0.54014 -0.821984 -0.304323 
-0.545904 -0.821655 -0.304158 
-0.551667 -0.82149 -0.304076 
-0.557431 -0.820667 -0.303582 
-0.563195 -0.820502 -0.303582 
-0.568876 -0.819926 -0.303252 
-0.574475 -0.818773 -0.302594 
-0.580156 -0.817538 -0.301853 
-0.58592 -0.816962 -0.301523 
-0.591519 -0.815891 -0.300865 
-0.597118 -0.81408 -0.299712 
-0.602717 -0.812762 -0.298888 
-0.608316 -0.811033 -0.297818 
-0.613915 -0.809222 -0.296583 
-0.619514 -0.807328 -0.29543 
-0.625113 -0.805434 -0.294195 
-0.630712 -0.803294 -0.292795 
-0.636229 -0.800988 -0.291313 
-0.641828 -0.798518 -0.289667 
-0.647345 -0.795554 -0.28769 
-0.652861 -0.792425 -0.28555 
-0.658378 -0.789131 -0.283409 
-0.663895 -0.785838 -0.281186 
-0.669494 -0.782544 -0.278963 
-0.675093 -0.778921 -0.276492 
-0.680692 -0.775051 -0.27394 
-0.772911 -0.942528 -0.388555 
-0.778345 -0.944998 -0.390284 
-0.783697 -0.946892 -0.391684 
-0.789049 -0.949033 -0.393166 
-0.794401 -0.950268 -0.394072 
-0.799671 -0.950926 -0.394566 
-0.805023 -0.951173 -0.394813 
-0.810292 -0.951173 -0.394895 
-0.815562 -0.950597 -0.394566 
-0.820832 -0.94928 -0.393742 
-0.826101 -0.946809 -0.392178 
-0.831371 -0.943187 -0.38979 
-0.835406 -0.939564 -0.387402 
-0.489584 -0.819761 -0.296665 
-0.495513 -0.820502 -0.297242 
-0.501523 -0.820749 -0.297489 
-0.507369 -0.820914 -0.297736 
-0.513298 -0.821161 -0.297983 
-0.519144 -0.821573 -0.298312 
-0.524907 -0.821243 -0.29823 
-0.530753 -0.821079 -0.298147 
-0.536599 -0.820996 -0.298147 
-0.542445 -0.820832 -0.298147 
-0.548127 -0.820502 -0.297983 
-0.55389 -0.820091 -0.297818 
-0.559737 -0.819844 -0.297736 
-0.565418 -0.819267 -0.297406 
-0.571182 -0.818608 -0.296995 
-0.576863 -0.817867 -0.296583 
-0.582544 -0.816797 -0.295924 
-0.588226 -0.815809 -0.295348 
-0.593907 -0.814574 -0.294607 
-0.599506 -0.813256 -0.293701 
-0.605187 -0.812104 -0.293042 
-0.610786 -0.810622 -0.292137 
-0.616385 -0.808728 -0.290902 
-0.621984 -0.806916 -0.289749 
-0.627583 -0.804693 -0.288267 
-0.633182 -0.802717 -0.286949 
-0.638781 -0.800576 -0.28555 
-0.644298 -0.798106 -0.283903 
-0.649815 -0.795307 -0.282009 
-0.655414 -0.79259 -0.280198 
-0.66093 -0.789214 -0.277974 
-0.666529 -0.786002 -0.275751 
-0.672128 -0.782791 -0.273611 
-0.677727 -0.779251 -0.271223 
-0.683326 -0.775298 -0.268588 
-0.687526 -0.771923 -0.266365 
-0.770111 -0.942857 -0.38345 
-0.775545 -0.945657 -0.385426 
-0.780897 -0.947797 -0.386991 
-0.786249 -0.949609 -0.388226 
-0.791601 -0.950762 -0.389131 
-0.796953 -0.951914 -0.389955 
-0.802223 -0.95282 -0.390613 
-0.807493 -0.952985 -0.39086 
-0.812762 -0.952408 -0.390449 
-0.818032 -0.951173 -0.389708 
-0.823302 -0.949115 -0.38839 
-0.828654 -0.946151 -0.386414 
-0.833923 -0.941622 -0.383368 
-0.489584 -0.819185 -0.291725 
-0.49543 -0.81935 -0.29189 
-0.501359 -0.819761 -0.292219 
-0.507287 -0.819926 -0.292466 
-0.513133 -0.819926 -0.292466 
-0.518979 -0.819844 -0.292548 
-0.524825 -0.819926 -0.292713 
-0.530753 -0.820091 -0.292878 
-0.536599 -0.820091 -0.29296 
-0.542363 -0.820008 -0.29296 
-0.548127 -0.819514 -0.292713 
-0.55389 -0.81902 -0.292384 
-0.559654 -0.818938 -0.292466 
-0.565418 -0.818526 -0.292219 
-0.571182 -0.81795 -0.29189 
-0.576945 -0.817456 -0.291643 
-0.582544 -0.816221 -0.290902 
-0.588308 -0.815644 -0.290572 
-0.594072 -0.814574 -0.289914 
-0.599753 -0.813503 -0.289255 
-0.60527 -0.811939 -0.288184 
-0.610869 -0.810375 -0.287279 
-0.61655 -0.808646 -0.286126 
-0.622149 -0.806999 -0.285056 
-0.62783 -0.805352 -0.283985 
-0.633429 -0.803623 -0.282832 
-0.638946 -0.80107 -0.281186 
-0.644545 -0.798765 -0.279621 
-0.650144 -0.79613 -0.277892 
-0.655661 -0.793248 -0.275916 
-0.66126 -0.790449 -0.274022 
-0.666859 -0.787649 -0.272128 
-0.672458 -0.784191 -0.269741 
-0.678057 -0.780897 -0.267518 
-0.683656 -0.777275 -0.26513 
-0.687855 -0.773981 -0.262989 
-0.770523 -0.944833 -0.380156 
-0.775957 -0.947386 -0.381886 
-0.781309 -0.949527 -0.38345 
-0.786661 -0.951091 -0.384603 
-0.792013 -0.952408 -0.385508 
-0.797283 -0.953232 -0.386167 
-0.802635 -0.953891 -0.386661 
-0.807904 -0.953891 -0.386744 
-0.813174 -0.953396 -0.386414 
-0.818444 -0.952079 -0.385591 
-0.823713 -0.949856 -0.384191 
-0.829065 -0.946562 -0.38205 
-0.833018 -0.943516 -0.379992 
-0.492878 -0.818114 -0.286867 
-0.498888 -0.818856 -0.287443 
-0.504817 -0.818938 -0.287608 
-0.51058 -0.818608 -0.287443 
-0.516509 -0.81902 -0.287855 
-0.522437 -0.819267 -0.28802 
-0.528283 -0.819267 -0.288102 
-0.534212 -0.819514 -0.288349 
-0.539975 -0.818938 -0.28802 
-0.545739 -0.818444 -0.287773 
-0.551585 -0.818361 -0.287773 
-0.557349 -0.818197 -0.28769 
-0.563112 -0.817867 -0.287526 
-0.568958 -0.817538 -0.287361 
-0.57464 -0.816962 -0.287032 
-0.580321 -0.816138 -0.286538 
-0.586002 -0.81515 -0.285961 
-0.591848 -0.814739 -0.285714 
-0.59753 -0.813668 -0.285056 
-0.603211 -0.812515 -0.284315 
-0.60881 -0.811198 -0.283491 
-0.614492 -0.809634 -0.282421 
-0.620008 -0.807657 -0.281186 
-0.62569 -0.806175 -0.280198 
-0.631289 -0.804199 -0.27888 
-0.636888 -0.802058 -0.27748 
-0.642487 -0.800165 -0.276245 
-0.648086 -0.79753 -0.274434 
-0.653685 -0.795142 -0.27287 
-0.659201 -0.792425 -0.270976 
-0.6648 -0.789543 -0.269 
-0.670399 -0.786332 -0.266859 
-0.675998 -0.783285 -0.264718 
-0.681597 -0.779992 -0.262495 
-0.687279 -0.776287 -0.260107 
-0.691396 -0.772417 -0.257472 
-0.768711 -0.944916 -0.375875 
-0.774146 -0.947797 -0.377851 
-0.77958 -0.949774 -0.379251 
-0.78485 -0.95175 -0.380568 
-0.790202 -0.953232 -0.381721 
-0.795554 -0.954138 -0.38238 
-0.800823 -0.954796 -0.382874 
-0.806093 -0.954961 -0.383038 
-0.811445 -0.95422 -0.382627 
-0.816715 -0.953149 -0.381886 
-0.821984 -0.951503 -0.380815 
-0.827336 -0.948456 -0.378839 
-0.832606 -0.944257 -0.37604 
-0.493619 -0.81655 -0.281021 
-0.499629 -0.816962 -0.28135 
-0.505475 -0.817126 -0.281515 
-0.511404 -0.817209 -0.281597 
-0.517332 -0.817209 -0.28168 
-0.523178 -0.817373 -0.281927 
-0.529107 -0.817456 -0.282009 
-0.53487 -0.817291 -0.281927 
-0.540799 -0.817538 -0.282174 
-0.546645 -0.817538 -0.282256 
-0.552491 -0.817456 -0.282256 
-0.558254 -0.817209 -0.282091 
-0.564018 -0.816962 -0.282009 
-0.569864 -0.816632 -0.281844 
-0.575628 -0.816138 -0.281515 
-0.581309 -0.815315 -0.281021 
-0.586991 -0.814162 -0.280362 
-0.592754 -0.813833 -0.280115 
-0.598518 -0.813174 -0.279786 
-0.604199 -0.811774 -0.27888 
-0.609881 -0.810539 -0.278057 
-0.615562 -0.809634 -0.27748 
-0.621079 -0.807575 -0.276163 
-0.62676 -0.80634 -0.27534 
-0.632441 -0.804776 -0.274269 
-0.63804 -0.802552 -0.272787 
-0.643639 -0.800576 -0.271387 
-0.649238 -0.798353 -0.269905 
-0.654837 -0.795636 -0.268012 
-0.660354 -0.793001 -0.266282 
-0.666035 -0.790531 -0.264553 
-0.671634 -0.787649 -0.262577 
-0.677233 -0.784356 -0.260354 
-0.682832 -0.781227 -0.258213 
-0.688514 -0.777522 -0.255743 
-0.767394 -0.946068 -0.371511 
-0.772828 -0.948868 -0.373487 
-0.77818 -0.951009 -0.375051 
-0.783532 -0.95282 -0.376287 
-0.788884 -0.95422 -0.377275 
-0.794154 -0.95529 -0.378098 
-0.799506 -0.955949 -0.378592 
-0.804776 -0.956031 -0.378674 
-0.810045 -0.955702 -0.37851 
-0.815397 -0.954632 -0.377851 
-0.820585 -0.952573 -0.376451 
-0.825937 -0.950021 -0.374722 
-0.831289 -0.946151 -0.37217 
-0.498559 -0.813586 -0.272787 
-0.507369 -0.813668 -0.27287 
-0.516179 -0.813421 -0.27287 
-0.525154 -0.814409 -0.273611 
-0.533965 -0.814409 -0.273693 
-0.542775 -0.814574 -0.273858 
-0.551585 -0.814409 -0.273775 
-0.560395 -0.814492 -0.27394 
-0.569205 -0.814492 -0.274022 
-0.577769 -0.813833 -0.273693 
-0.586414 -0.813092 -0.273199 
-0.595142 -0.812598 -0.27287 
-0.603788 -0.81161 -0.272293 
-0.612268 -0.809963 -0.271223 
-0.620832 -0.808234 -0.270152 
-0.629312 -0.805764 -0.268506 
-0.637793 -0.803211 -0.266694 
-0.64611 -0.8 -0.264553 
-0.65459 -0.796871 -0.262413 
-0.663071 -0.793495 -0.260189 
-0.67007 -0.790449 -0.257966 
-0.675669 -0.787402 -0.255908 
-0.68135 -0.784685 -0.254096 
-0.686949 -0.781474 -0.251956 
-0.692631 -0.777933 -0.249485 
-0.69683 -0.77431 -0.247015 
-0.766077 -0.947386 -0.366159 
-0.772828 -0.950844 -0.368547 
-0.780897 -0.953891 -0.370688 
-0.788884 -0.955867 -0.37217 
-0.796871 -0.957266 -0.373158 
-0.804776 -0.957513 -0.373487 
-0.81268 -0.956608 -0.372828 
-0.820667 -0.953808 -0.371017 
-0.827254 -0.949774 -0.3683 
-0.831289 -0.946562 -0.366077 
-0.498641 -0.809881 -0.262989 
-0.507452 -0.809634 -0.262824 
-0.516262 -0.809222 -0.262742 
-0.525237 -0.809881 -0.263236 
-0.534047 -0.809881 -0.263236 
-0.543022 -0.810622 -0.263895 
-0.551914 -0.81128 -0.264471 
-0.560725 -0.811198 -0.264471 
-0.569617 -0.811692 -0.2648 
-0.578263 -0.810869 -0.264389 
-0.586991 -0.810375 -0.264059 
-0.595801 -0.810869 -0.264471 
-0.604529 -0.810375 -0.264142 
-0.613174 -0.80914 -0.263401 
-0.621737 -0.807904 -0.262495 
-0.630218 -0.805764 -0.261095 
-0.638781 -0.803623 -0.259613 
-0.64718 -0.800823 -0.257802 
-0.655743 -0.798106 -0.255908 
-0.664224 -0.795307 -0.253932 
-0.672705 -0.791766 -0.251462 
-0.681103 -0.787732 -0.248744 
-0.689667 -0.78345 -0.24578 
-0.695266 -0.780074 -0.243475 
-0.765994 -0.949609 -0.36056 
-0.774063 -0.953479 -0.363277 
-0.782133 -0.956278 -0.365253 
-0.790119 -0.958172 -0.366571 
-0.798106 -0.958995 -0.367229 
-0.806011 -0.959078 -0.367394 
-0.813915 -0.957596 -0.366406 
-0.82182 -0.954302 -0.364265 
-0.828407 -0.949856 -0.361219 
-0.832441 -0.946233 -0.358748 
-0.501935 -0.807246 -0.253932 
-0.51058 -0.806093 -0.253191 
-0.519308 -0.80527 -0.252614 
-0.528119 -0.805105 -0.252614 
-0.537011 -0.805434 -0.252944 
-0.545904 -0.805599 -0.253108 
-0.554961 -0.806669 -0.253849 
-0.563771 -0.806999 -0.254179 
-0.572746 -0.80774 -0.254755 
-0.581392 -0.806587 -0.254014 
-0.590449 -0.808069 -0.255084 
-0.599341 -0.808893 -0.255661 
-0.608151 -0.80881 -0.255743 
-0.616797 -0.807987 -0.255167 
-0.625443 -0.807163 -0.25459 
-0.634088 -0.805517 -0.25352 
-0.642569 -0.803541 -0.252203 
-0.65105 -0.80107 -0.250473 
-0.659613 -0.798436 -0.24858 
-0.668094 -0.795554 -0.246604 
-0.676575 -0.792425 -0.24438 
-0.685056 -0.788555 -0.241746 
-0.693619 -0.784438 -0.238864 
-0.76443 -0.951091 -0.354467 
-0.772581 -0.954796 -0.357102 
-0.780568 -0.957349 -0.358913 
-0.788637 -0.959407 -0.360313 
-0.796542 -0.960478 -0.361136 
-0.804529 -0.960395 -0.361136 
-0.812433 -0.959078 -0.360231 
-0.820338 -0.955784 -0.35809 
-0.826925 -0.951832 -0.355373 
-0.830877 -0.948291 -0.352902 
-0.502511 -0.805764 -0.245945 
-0.511075 -0.804199 -0.244957 
-0.519473 -0.801811 -0.24331 
-0.528119 -0.800412 -0.242487 
-0.536846 -0.799506 -0.24191 
-0.545821 -0.800329 -0.242487 
-0.554796 -0.800659 -0.242898 
-0.563606 -0.800576 -0.242816 
-0.572581 -0.801482 -0.243475 
-0.580239 -0.800906 -0.243063 
-0.588802 -0.803705 -0.245121 
-0.596953 -0.806175 -0.246768 
-0.605928 -0.807493 -0.247674 
-0.614739 -0.807575 -0.247839 
-0.623466 -0.807246 -0.247592 
-0.632112 -0.806175 -0.246851 
-0.640758 -0.804776 -0.245863 
-0.649238 -0.80247 -0.244298 
-0.657802 -0.800247 -0.242816 
-0.666365 -0.797777 -0.241005 
-0.674846 -0.794895 -0.238946 
-0.683409 -0.791684 -0.236723 
-0.69189 -0.788061 -0.23417 
-0.76303 -0.952738 -0.348703 
-0.771099 -0.956278 -0.351173 
-0.779168 -0.958913 -0.352985 
-0.787155 -0.960807 -0.354385 
-0.795142 -0.961877 -0.355208 
-0.803047 -0.96196 -0.355208 
-0.810951 -0.960395 -0.35422 
-0.818855 -0.957349 -0.352161 
-0.825443 -0.953396 -0.349444 
-0.830712 -0.948538 -0.346068 
-0.506134 -0.804611 -0.23837 
-0.514615 -0.80247 -0.236888 
-0.522849 -0.799424 -0.234829 
-0.531083 -0.796048 -0.232606 
-0.539317 -0.79259 -0.230136 
-0.544833 -0.790037 -0.228407 
-0.600412 -0.803705 -0.238123 
-0.609551 -0.806093 -0.239769 
-0.618444 -0.806587 -0.240181 
-0.627336 -0.806834 -0.240346 
-0.635982 -0.805846 -0.239605 
-0.644627 -0.804446 -0.238699 
-0.653191 -0.802552 -0.237299 
-0.661754 -0.800576 -0.235982 
-0.670317 -0.798518 -0.2345 
-0.67888 -0.795801 -0.232606 
-0.687361 -0.792837 -0.230465 
-0.693125 -0.790449 -0.228736 
-0.761548 -0.954138 -0.342857 
-0.769617 -0.957513 -0.345163 
-0.777686 -0.960231 -0.347056 
-0.785755 -0.962042 -0.348374 
-0.79366 -0.963112 -0.349115 
-0.801647 -0.963359 -0.349362 
-0.809469 -0.96196 -0.348374 
-0.817373 -0.958831 -0.346233 
-0.82396 -0.955043 -0.343598 
-0.82923 -0.950844 -0.340716 
-0.507122 -0.804693 -0.231289 
-0.515356 -0.8014 -0.229065 
-0.523508 -0.797777 -0.226595 
-0.531494 -0.793413 -0.223549 
-0.538082 -0.788884 -0.220338 
-0.610128 -0.803129 -0.230548 
-0.619267 -0.805517 -0.232194 
-0.628242 -0.806175 -0.232688 
-0.637052 -0.805928 -0.232441 
-0.645698 -0.805187 -0.231865 
-0.654261 -0.803458 -0.23063 
-0.662907 -0.801647 -0.229395 
-0.67147 -0.799671 -0.227913 
-0.680033 -0.797612 -0.226513 
-0.688596 -0.794813 -0.224455 
-0.760148 -0.95529 -0.336517 
-0.7683 -0.959078 -0.339152 
-0.776287 -0.96163 -0.340881 
-0.784273 -0.963524 -0.342281 
-0.79226 -0.964594 -0.343022 
-0.800165 -0.964759 -0.343104 
-0.808069 -0.963277 -0.342198 
-0.815974 -0.960478 -0.340222 
-0.823796 -0.955702 -0.336929 
-0.829065 -0.951009 -0.333635 
-0.510663 -0.803294 -0.222725 
-0.518814 -0.799588 -0.220255 
-0.526554 -0.794154 -0.216385 
-0.531741 -0.790119 -0.213586 
-0.616797 -0.802058 -0.222067 
-0.626019 -0.804693 -0.223878 
-0.634994 -0.805681 -0.224537 
-0.643722 -0.805352 -0.224372 
-0.65245 -0.804611 -0.223796 
-0.661095 -0.803129 -0.222725 
-0.669658 -0.8014 -0.221408 
-0.678304 -0.799588 -0.220173 
-0.686949 -0.797695 -0.218773 
-0.758666 -0.957019 -0.330342 
-0.766818 -0.960642 -0.332894 
-0.774804 -0.962865 -0.334459 
-0.782791 -0.964594 -0.335694 
-0.790778 -0.965747 -0.336435 
-0.798683 -0.965747 -0.336435 
-0.806587 -0.964347 -0.335447 
-0.814409 -0.961548 -0.333553 
-0.822314 -0.956525 -0.330012 
-0.827583 -0.951997 -0.326884 
-0.510827 -0.8028 -0.214739 
-0.518814 -0.798189 -0.211527 
-0.525154 -0.792919 -0.207822 
-0.626101 -0.802552 -0.214574 
-0.635323 -0.805023 -0.216303 
-0.644133 -0.805434 -0.216632 
-0.652944 -0.805105 -0.216303 
-0.661671 -0.804282 -0.215727 
-0.670317 -0.803047 -0.214821 
-0.678963 -0.801564 -0.213668 
-0.686126 -0.800165 -0.21268 
-0.75669 -0.957925 -0.323508 
-0.764841 -0.96163 -0.32606 
-0.772828 -0.963853 -0.327625 
-0.780897 -0.965665 -0.328942 
-0.788802 -0.966818 -0.329765 
-0.796706 -0.9669 -0.329765 
-0.804611 -0.965583 -0.32886 
-0.812433 -0.962701 -0.326884 
-0.820338 -0.958172 -0.323672 
-0.825525 -0.953808 -0.320626 
-0.512886 -0.800741 -0.206093 
-0.518073 -0.7972 -0.203623 
-0.629889 -0.801729 -0.206752 
-0.637629 -0.804199 -0.208481 
-0.646604 -0.805517 -0.209387 
-0.655414 -0.805352 -0.209222 
-0.664142 -0.80494 -0.208893 
-0.672869 -0.803952 -0.208152 
-0.681597 -0.802964 -0.20741 
-0.687361 -0.802058 -0.206669 
-0.752408 -0.957019 -0.315932 
-0.759325 -0.961054 -0.318732 
-0.767394 -0.9641 -0.320873 
-0.775381 -0.965747 -0.322026 
-0.783368 -0.967312 -0.323014 
-0.791272 -0.968053 -0.32359 
-0.799177 -0.967559 -0.323261 
-0.807081 -0.9655 -0.321779 
-0.814903 -0.96196 -0.319308 
-0.82149 -0.957843 -0.316344 
-0.82536 -0.954055 -0.313792 
-0.510251 -0.801317 -0.2 
-0.514121 -0.798436 -0.198024 
-0.634582 -0.801647 -0.2 
-0.64084 -0.804035 -0.201729 
-0.646933 -0.805105 -0.20247 
-0.654426 -0.806011 -0.203129 
-0.663154 -0.805846 -0.202882 
-0.671881 -0.80527 -0.20247 
-0.680609 -0.804364 -0.201811 
-0.686455 -0.803952 -0.201482 
-0.751667 -0.958172 -0.310333 
-0.757184 -0.96163 -0.312804 
-0.763853 -0.964183 -0.314533 
-0.771923 -0.966406 -0.316097 
-0.779909 -0.967888 -0.317085 
-0.787814 -0.968876 -0.317744 
-0.795801 -0.968794 -0.317744 
-0.803623 -0.967229 -0.316674 
-0.81021 -0.964924 -0.314944 
-0.815397 -0.962207 -0.313133 
-0.820667 -0.958831 -0.310663 
-0.824537 -0.955126 -0.308028 
-0.509922 -0.799835 -0.19259 
-0.635982 -0.800741 -0.192919 
-0.642322 -0.80387 -0.19506 
-0.648415 -0.805352 -0.19613 
-0.654426 -0.806093 -0.196624 
-0.661754 -0.80634 -0.196789 
-0.670646 -0.806258 -0.196706 
-0.679374 -0.805764 -0.196212 
-0.68522 -0.80494 -0.195718 
-0.750597 -0.95916 -0.304817 
-0.756031 -0.962454 -0.307122 
-0.762783 -0.964841 -0.308769 
-0.770852 -0.966982 -0.310251 
-0.778839 -0.968711 -0.311486 
-0.786744 -0.969535 -0.31198 
-0.79473 -0.969452 -0.31198 
-0.802552 -0.96797 -0.31091 
-0.80914 -0.965583 -0.309181 
-0.814327 -0.962865 -0.307205 
-0.819597 -0.959243 -0.304652 
-0.823466 -0.955949 -0.302264 
-0.640181 -0.800906 -0.185755 
-0.646521 -0.804199 -0.188061 
-0.654096 -0.806011 -0.189378 
-0.663071 -0.807081 -0.190119 
-0.671964 -0.80741 -0.190284 
-0.679292 -0.80741 -0.190202 
-0.749197 -0.96056 -0.298806 
-0.756031 -0.964183 -0.301359 
-0.764183 -0.9669 -0.303252 
-0.77217 -0.968711 -0.304487 
-0.780156 -0.969946 -0.305311 
-0.788061 -0.970605 -0.305805 
-0.795965 -0.970029 -0.305311 
-0.80387 -0.967888 -0.303829 
-0.810375 -0.965089 -0.30177 
-0.815562 -0.96196 -0.299547 
-0.820832 -0.957678 -0.296501 
-0.651626 -0.804611 -0.179992 
-0.660766 -0.806834 -0.181556 
-0.669823 -0.808316 -0.182544 
-0.677233 -0.80881 -0.182874 
-0.748786 -0.962124 -0.291972 
-0.756937 -0.966159 -0.294772 
-0.765006 -0.968547 -0.296418 
-0.772993 -0.970111 -0.297489 
-0.78098 -0.971099 -0.298147 
-0.788884 -0.971429 -0.298394 
-0.796789 -0.970441 -0.297653 
-0.804611 -0.967888 -0.295842 
-0.812433 -0.963771 -0.292795 
-0.818938 -0.958501 -0.28909 
-0.658049 -0.806175 -0.171923 
-0.66727 -0.808975 -0.173899 
-0.674763 -0.810375 -0.174804 
-0.74648 -0.962701 -0.283738 
-0.754714 -0.966653 -0.286538 
-0.762783 -0.969123 -0.288267 
-0.77077 -0.97077 -0.28942 
-0.778757 -0.971758 -0.290078 
-0.786661 -0.972005 -0.290243 
-0.794566 -0.971182 -0.289584 
-0.80247 -0.968629 -0.28769 
-0.81021 -0.964841 -0.285056 
-0.816715 -0.959737 -0.28135 
-0.661342 -0.80741 -0.163195 
-0.670729 -0.811033 -0.16583 
-0.744175 -0.96303 -0.275093 
-0.752408 -0.967065 -0.278057 
-0.760478 -0.969617 -0.279786 
-0.768547 -0.971511 -0.281103 
-0.777851 -0.972499 -0.281762 
-0.78839 -0.972417 -0.28168 
-0.79753 -0.970358 -0.280115 
-0.805352 -0.966571 -0.27748 
-0.813174 -0.961466 -0.273693 
-0.818444 -0.956608 -0.270235 
-0.665047 -0.809634 -0.15529 
-0.671387 -0.813092 -0.15776 
-0.742034 -0.963524 -0.266529 
-0.750268 -0.967559 -0.269329 
-0.758337 -0.970194 -0.271223 
-0.767723 -0.972005 -0.272458 
-0.778345 -0.973075 -0.273117 
-0.788884 -0.972499 -0.272705 
-0.798024 -0.969699 -0.270646 
-0.805846 -0.965583 -0.267682 
-0.813668 -0.959572 -0.263236 
-0.737176 -0.962124 -0.256402 
-0.745492 -0.966735 -0.259613 
-0.753643 -0.969617 -0.261671 
-0.761713 -0.971511 -0.262989 
-0.771017 -0.972993 -0.264059 
-0.781639 -0.97324 -0.264142 
-0.790778 -0.972087 -0.263236 
-0.798683 -0.968958 -0.261013 
-0.806505 -0.9641 -0.257472 
-0.813009 -0.958007 -0.253026 
-0.732482 -0.960395 -0.245945 
-0.740881 -0.966077 -0.249979 
-0.749033 -0.969041 -0.25212 
-0.758419 -0.971593 -0.253932 
-0.769123 -0.973322 -0.255167 
-0.779745 -0.973322 -0.255084 
-0.790202 -0.971676 -0.253849 
-0.799341 -0.967806 -0.250967 
-0.807163 -0.961548 -0.246439 
-0.730671 -0.960642 -0.23697 
-0.73907 -0.966077 -0.24084 
-0.747303 -0.969123 -0.243063 
-0.75669 -0.971511 -0.244792 
-0.767394 -0.97324 -0.245945 
-0.777933 -0.973487 -0.24611 
-0.788473 -0.971593 -0.24471 
-0.797612 -0.967312 -0.241499 
-0.805352 -0.960889 -0.236805 
-0.72606 -0.958995 -0.226266 
-0.734459 -0.964677 -0.230465 
-0.742775 -0.968217 -0.233018 
-0.752244 -0.970852 -0.234829 
-0.762948 -0.972911 -0.236311 
-0.773569 -0.973322 -0.236558 
-0.784109 -0.971923 -0.235488 
-0.793248 -0.968382 -0.232853 
-0.800988 -0.962536 -0.228489 
-0.806175 -0.957019 -0.224455 
-0.724002 -0.95916 -0.216797 
-0.732482 -0.964924 -0.220996 
-0.742034 -0.968464 -0.223549 
-0.752902 -0.971182 -0.225525 
-0.763606 -0.972911 -0.22676 
-0.774146 -0.972828 -0.226595 
-0.784685 -0.970688 -0.225031 
-0.793825 -0.966241 -0.221655 
-0.800247 -0.960478 -0.217373 
-0.721531 -0.958748 -0.206916 
-0.730095 -0.964594 -0.211198 
-0.739646 -0.968217 -0.213751 
-0.750432 -0.970688 -0.215562 
-0.761136 -0.972581 -0.216962 
-0.771758 -0.972417 -0.216715 
-0.782297 -0.970358 -0.21515 
-0.791437 -0.965912 -0.211774 
-0.797859 -0.960313 -0.207657 
-0.715932 -0.955373 -0.194895 
-0.724578 -0.962289 -0.199918 
-0.734294 -0.9669 -0.203294 
-0.74508 -0.969535 -0.20527 
-0.755867 -0.971264 -0.206422 
-0.766488 -0.971923 -0.206834 
-0.777028 -0.970605 -0.205764 
-0.786249 -0.967312 -0.203376 
-0.793989 -0.961795 -0.199177 
-0.713462 -0.954879 -0.184767 
-0.722108 -0.961383 -0.189625 
-0.731906 -0.96583 -0.192919 
-0.742692 -0.968711 -0.194895 
-0.753479 -0.970111 -0.195965 
-0.7641 -0.970605 -0.196212 
-0.774722 -0.96937 -0.195224 
-0.783862 -0.966324 -0.192919 
-0.791684 -0.960478 -0.188555 
-0.708769 -0.952244 -0.173322 
-0.717497 -0.958831 -0.17818 
-0.725978 -0.963606 -0.181721 
-0.735529 -0.966406 -0.183779 
-0.746315 -0.9683 -0.185179 
-0.757019 -0.969123 -0.185673 
-0.767559 -0.968135 -0.18485 
-0.778098 -0.965665 -0.182956 
-0.787238 -0.960395 -0.178839 
-0.700288 -0.945904 -0.159901 
-0.706299 -0.951503 -0.1641 
-0.713627 -0.956937 -0.168053 
-0.722108 -0.961795 -0.171758 
-0.730342 -0.964759 -0.173899 
-0.738411 -0.966077 -0.174804 
-0.74788 -0.967147 -0.175545 
-0.758584 -0.967394 -0.175628 
-0.767806 -0.965747 -0.174393 
-0.77571 -0.963442 -0.172499 
-0.783532 -0.95916 -0.169288 
-0.788637 -0.953643 -0.165089 
-0.808234 -0.888184 -0.115438 
-0.699712 -0.946727 -0.152985 
-0.70564 -0.95175 -0.156772 
-0.711486 -0.956031 -0.159984 
-0.718567 -0.959901 -0.162865 
-0.726883 -0.96303 -0.165171 
-0.735035 -0.964759 -0.166406 
-0.743104 -0.9655 -0.1669 
-0.751173 -0.965994 -0.167229 
-0.75916 -0.96583 -0.167065 
-0.767065 -0.964347 -0.16583 
-0.774887 -0.961383 -0.163524 
-0.781392 -0.957349 -0.160395 
-0.785261 -0.952738 -0.156937 
-0.807657 -0.892795 -0.111322 
-0.816056 -0.88909 -0.108357 
-0.824455 -0.885961 -0.105887 
-0.832935 -0.88275 -0.103335 
-0.840346 -0.879786 -0.101029 
-0.848086 -0.876657 -0.0985591 
-0.695924 -0.944092 -0.144339 
-0.701935 -0.949197 -0.148127 
-0.707781 -0.953561 -0.15142 
-0.713545 -0.957184 -0.154138 
-0.720543 -0.960478 -0.156525 
-0.728777 -0.962783 -0.158172 
-0.736846 -0.964018 -0.158995 
-0.744916 -0.964512 -0.159325 
-0.752985 -0.964512 -0.159325 
-0.760972 -0.963771 -0.158584 
-0.768794 -0.961383 -0.156772 
-0.775381 -0.958831 -0.154796 
-0.780568 -0.954302 -0.151338 
-0.784356 -0.950103 -0.148044 
-0.805599 -0.897324 -0.107781 
-0.812598 -0.894113 -0.105228 
-0.820996 -0.891231 -0.103005 
-0.829395 -0.888514 -0.100782 
-0.837793 -0.885138 -0.0981474 
-0.846274 -0.882091 -0.0956772 
-0.694689 -0.943516 -0.137011 
-0.7007 -0.948538 -0.140716 
-0.706546 -0.95282 -0.143928 
-0.71231 -0.956196 -0.146398 
-0.719308 -0.959325 -0.148703 
-0.727542 -0.961466 -0.15035 
-0.735694 -0.962454 -0.150926 
-0.743763 -0.962948 -0.151256 
-0.75175 -0.962865 -0.151091 
-0.759737 -0.961713 -0.150185 
-0.767641 -0.95949 -0.148374 
-0.774146 -0.956114 -0.145739 
-0.779333 -0.95175 -0.142363 
-0.801811 -0.902841 -0.104981 
-0.80881 -0.899382 -0.102182 
-0.817126 -0.896501 -0.0998765 
-0.825525 -0.893948 -0.097818 
-0.833923 -0.891066 -0.0955126 
-0.842404 -0.888184 -0.0932071 
-0.850803 -0.885056 -0.0907369 
-0.857802 -0.882256 -0.0885138 
-0.864965 -0.878716 -0.0857143 
-0.871387 -0.875175 -0.0829971 
-0.693125 -0.941128 -0.127872 
-0.699218 -0.946645 -0.132071 
-0.705064 -0.950762 -0.135035 
-0.710827 -0.954302 -0.13767 
-0.717826 -0.957513 -0.140058 
-0.72606 -0.959407 -0.141375 
-0.734294 -0.960478 -0.142116 
-0.742363 -0.960642 -0.142116 
-0.75035 -0.960478 -0.141951 
-0.758337 -0.959325 -0.140963 
-0.766241 -0.956772 -0.138905 
-0.772746 -0.952573 -0.135694 
-0.776534 -0.94895 -0.132894 
-0.797942 -0.908851 -0.102017 
-0.804776 -0.904405 -0.0986414 
-0.813092 -0.901359 -0.0961713 
-0.82149 -0.899053 -0.0941951 
-0.829889 -0.896748 -0.0923014 
-0.838287 -0.89403 -0.0901606 
-0.846686 -0.891149 -0.0877727 
-0.855084 -0.88802 -0.0853026 
-0.863565 -0.884562 -0.0825854 
-0.872128 -0.880362 -0.0792096 
-0.880692 -0.875751 -0.0755867 
-0.887937 -0.871387 -0.0722931 
-0.892301 -0.868588 -0.07007 
-0.691807 -0.939893 -0.11972 
-0.697818 -0.945163 -0.123672 
-0.703664 -0.94895 -0.126554 
-0.710827 -0.952985 -0.129518 
-0.719308 -0.956361 -0.131988 
-0.727542 -0.957843 -0.132977 
-0.735611 -0.958254 -0.133224 
-0.743681 -0.958007 -0.132894 
-0.751667 -0.957102 -0.132153 
-0.759654 -0.955867 -0.131165 
-0.767476 -0.952326 -0.128366 
-0.773899 -0.946892 -0.124084 
-0.777686 -0.94154 -0.119967 
-0.780815 -0.935611 -0.115356 
-0.78452 -0.928036 -0.10951 
-0.788884 -0.91972 -0.10317 
-0.794154 -0.913545 -0.0983121 
-0.800906 -0.909098 -0.0948539 
-0.809222 -0.90564 -0.0921367 
-0.817538 -0.903088 -0.0899959 
-0.825937 -0.900865 -0.0881844 
-0.834335 -0.898394 -0.086126 
-0.842734 -0.895924 -0.0840675 
-0.85105 -0.89296 -0.0816797 
-0.859448 -0.889914 -0.0792919 
-0.868012 -0.886126 -0.0762454 
-0.876575 -0.882091 -0.0730342 
-0.883738 -0.878304 -0.07007 
-0.88942 -0.874928 -0.0674352 
-0.895266 -0.870976 -0.0643063 
-0.899712 -0.867518 -0.0615891 
-0.693701 -0.940634 -0.113792 
-0.699712 -0.945821 -0.117662 
-0.705558 -0.949197 -0.120214 
-0.711322 -0.952408 -0.122602 
-0.718238 -0.954714 -0.124249 
-0.726472 -0.955867 -0.125072 
-0.734541 -0.956031 -0.125072 
-0.74261 -0.956031 -0.124907 
-0.750597 -0.954879 -0.124002 
-0.758584 -0.952902 -0.122355 
-0.765171 -0.950185 -0.120214 
-0.770276 -0.946233 -0.117085 
-0.775381 -0.94014 -0.11231 
-0.780321 -0.93133 -0.105476 
-0.785426 -0.922931 -0.0989708 
-0.790613 -0.916921 -0.0943598 
-0.797365 -0.912227 -0.0907369 
-0.805599 -0.908851 -0.0880198 
-0.813915 -0.906381 -0.085879 
-0.822314 -0.90424 -0.0841499 
-0.83063 -0.901935 -0.0822561 
-0.839028 -0.899547 -0.08028 
-0.847427 -0.896912 -0.0780568 
-0.855743 -0.893701 -0.0755043 
-0.864224 -0.890325 -0.0727872 
-0.871387 -0.887279 -0.070317 
-0.877069 -0.884562 -0.0681762 
-0.88275 -0.881762 -0.0659531 
-0.888514 -0.878139 -0.0630712 
-0.894277 -0.873858 -0.0597777 
-0.898724 -0.869988 -0.0567312 
-0.692878 -0.938823 -0.106381 
-0.698888 -0.943681 -0.110169 
-0.704734 -0.947468 -0.112968 
-0.710498 -0.950185 -0.114944 
-0.717415 -0.952408 -0.116591 
-0.725648 -0.953726 -0.117497 
-0.7338 -0.954055 -0.117662 
-0.741787 -0.953643 -0.117168 
-0.749856 -0.952573 -0.116262 
-0.757843 -0.950679 -0.114615 
-0.764347 -0.947715 -0.11231 
-0.769452 -0.942775 -0.10844 
-0.774557 -0.936352 -0.103417 
-0.77958 -0.929189 -0.097818 
-0.784767 -0.92219 -0.0923837 
-0.790037 -0.917579 -0.0887608 
-0.795471 -0.91445 -0.086373 
-0.800906 -0.912145 -0.0845616 
-0.807822 -0.909839 -0.0826678 
-0.816138 -0.907534 -0.080774 
-0.824455 -0.905393 -0.0789625 
-0.832853 -0.903088 -0.0769864 
-0.841252 -0.900618 -0.074928 
-0.84965 -0.8979 -0.0727872 
-0.856566 -0.89543 -0.0707287 
-0.862165 -0.893372 -0.0689996 
-0.867847 -0.890655 -0.0669411 
-0.873528 -0.888102 -0.0648827 
-0.87921 -0.885632 -0.0629065 
-0.884891 -0.882503 -0.0603541 
-0.890655 -0.878304 -0.0570605 
-0.895019 -0.874599 -0.0541787 
-0.69189 -0.93627 -0.0985591 
-0.697983 -0.941457 -0.102511 
-0.703829 -0.945245 -0.105311 
-0.709592 -0.948044 -0.107369 
-0.716591 -0.950268 -0.109016 
-0.724825 -0.951832 -0.110086 
-0.732977 -0.951914 -0.110086 
-0.741046 -0.951091 -0.109263 
-0.749033 -0.950185 -0.10844 
-0.756937 -0.948044 -0.106711 
-0.763524 -0.944504 -0.103911 
-0.768629 -0.939317 -0.0998765 
-0.773652 -0.933224 -0.0950185 
-0.778839 -0.927048 -0.0902429 
-0.784026 -0.922108 -0.086373 
-0.789378 -0.918814 -0.0837382 
-0.794813 -0.916015 -0.0815974 
-0.801647 -0.913215 -0.0792919 
-0.809881 -0.910663 -0.0773158 
-0.818279 -0.908604 -0.0755043 
-0.826595 -0.906546 -0.0737752 
-0.834994 -0.903993 -0.0717168 
-0.843392 -0.901523 -0.069576 
-0.850309 -0.8993 -0.0677645 
-0.855908 -0.897324 -0.0661178 
-0.861507 -0.895266 -0.064471 
-0.867106 -0.892878 -0.0625772 
-0.872787 -0.890078 -0.0603541 
-0.878469 -0.887279 -0.0581309 
-0.88415 -0.883738 -0.0553314 
-0.889914 -0.879374 -0.0518732 
-0.89436 -0.874846 -0.0483327 
-0.693289 -0.934953 -0.0910663 
-0.6993 -0.939564 -0.0946068 
-0.705228 -0.943351 -0.0974887 
-0.71231 -0.946398 -0.0997942 
-0.720708 -0.948127 -0.101029 
-0.72886 -0.94895 -0.101523 
-0.736929 -0.948621 -0.101112 
-0.744916 -0.947386 -0.100124 
-0.752902 -0.945821 -0.0987238 
-0.760807 -0.942198 -0.0958419 
-0.767312 -0.936682 -0.091478 
-0.772417 -0.931412 -0.0873611 
-0.777604 -0.926719 -0.0836558 
-0.782956 -0.922602 -0.0803623 
-0.789625 -0.918979 -0.0775628 
-0.797777 -0.915768 -0.0750103 
-0.806011 -0.913545 -0.0731165 
-0.814327 -0.911157 -0.0712227 
-0.822643 -0.909016 -0.0694113 
-0.831042 -0.906875 -0.0675998 
-0.839358 -0.904158 -0.0653767 
-0.847756 -0.901606 -0.0632359 
-0.856072 -0.898724 -0.0608481 
-0.863154 -0.896089 -0.0587073 
-0.868835 -0.893536 -0.0566488 
-0.874434 -0.890572 -0.054261 
-0.880115 -0.887032 -0.0515438 
-0.885879 -0.882832 -0.048168 
-0.891643 -0.876904 -0.0434747 
-0.693948 -0.931906 -0.0819267 
-0.699959 -0.936599 -0.0855496 
-0.707205 -0.940222 -0.0882668 
-0.715685 -0.943516 -0.0907369 
-0.724002 -0.944751 -0.0915603 
-0.732235 -0.945327 -0.0918897 
-0.740305 -0.944669 -0.0913133 
-0.748291 -0.942939 -0.0898312 
-0.756278 -0.940469 -0.0877727 
-0.762865 -0.937258 -0.0852203 
-0.76797 -0.932647 -0.081515 
-0.77324 -0.928777 -0.0784685 
-0.779827 -0.924249 -0.074928 
-0.787979 -0.920543 -0.0719638 
-0.79613 -0.917579 -0.069576 
-0.804364 -0.915274 -0.0676822 
-0.812598 -0.913133 -0.0659531 
-0.820914 -0.91091 -0.0640593 
-0.82923 -0.908687 -0.0622478 
-0.837629 -0.906299 -0.0601894 
-0.846027 -0.903829 -0.0581309 
-0.854343 -0.900782 -0.0556608 
-0.862742 -0.897077 -0.0526966 
-0.869823 -0.893783 -0.0499794 
-0.875504 -0.890408 -0.0472622 
-0.881186 -0.886044 -0.0438864 
-0.886949 -0.880774 -0.0396048 
-0.891313 -0.875587 -0.0355702 
-0.693866 -0.926554 -0.0708934 
-0.699959 -0.931577 -0.0747633 
-0.70597 -0.935611 -0.0778921 
-0.713133 -0.93907 -0.080527 
-0.721531 -0.940963 -0.0818444 
-0.729765 -0.941457 -0.0820914 
-0.737834 -0.940881 -0.081515 
-0.745904 -0.939728 -0.080527 
-0.753973 -0.937917 -0.0789625 
-0.761877 -0.934459 -0.0762454 
-0.769782 -0.929683 -0.0723755 
-0.777769 -0.925566 -0.0690819 
-0.78592 -0.922026 -0.0662824 
-0.794072 -0.919308 -0.0640593 
-0.802305 -0.917168 -0.0623302 
-0.810539 -0.914862 -0.0604364 
-0.818773 -0.912804 -0.0587073 
-0.827089 -0.910086 -0.0564842 
-0.835488 -0.907616 -0.0544257 
-0.843804 -0.904981 -0.0522026 
-0.852203 -0.902182 -0.0498971 
-0.860601 -0.898559 -0.0469329 
-0.8676 -0.894936 -0.0440511 
-0.873281 -0.891231 -0.0410045 
-0.878963 -0.886867 -0.0375463 
-0.884726 -0.88135 -0.0331824 
-0.88909 -0.876163 -0.0290655 
-0.697077 -0.925072 -0.0633182 
-0.703005 -0.929354 -0.0666941 
-0.708851 -0.932894 -0.0693289 
-0.716015 -0.935776 -0.0714697 
-0.724413 -0.937258 -0.0725401 
-0.732647 -0.937587 -0.0727048 
-0.740716 -0.936929 -0.0720461 
-0.748868 -0.935858 -0.0710581 
-0.756937 -0.933553 -0.0692466 
-0.764924 -0.930506 -0.0666941 
-0.772828 -0.926719 -0.0636476 
-0.78098 -0.923755 -0.0612598 
-0.789131 -0.921037 -0.0590366 
-0.797283 -0.918732 -0.0571429 
-0.805517 -0.916591 -0.0554137 
-0.813751 -0.914533 -0.0536846 
-0.822067 -0.912145 -0.0517085 
-0.830383 -0.909592 -0.0495677 
-0.838781 -0.906958 -0.0473446 
-0.847098 -0.904158 -0.0450391 
-0.855414 -0.900782 -0.0422396 
-0.862495 -0.897324 -0.0394401 
-0.868176 -0.893619 -0.0364759 
-0.873858 -0.889584 -0.0332647 
-0.879539 -0.88415 -0.0289831 
-0.885303 -0.877974 -0.0240428 
-0.700206 -0.923096 -0.0559901 
-0.706134 -0.92746 -0.059366 
-0.71198 -0.930589 -0.0617538 
-0.719144 -0.933059 -0.0636476 
-0.727378 -0.934212 -0.064471 
-0.735611 -0.934129 -0.0643063 
-0.743763 -0.933471 -0.0636476 
-0.751914 -0.932565 -0.0628242 
-0.759984 -0.930671 -0.0611774 
-0.76797 -0.927625 -0.0587073 
-0.776122 -0.925154 -0.0567312 
-0.784273 -0.922767 -0.054755 
-0.792425 -0.920214 -0.0526966 
-0.800576 -0.918238 -0.0510498 
-0.80881 -0.916015 -0.049156 
-0.817126 -0.913792 -0.0473446 
-0.825443 -0.911404 -0.0452861 
-0.833759 -0.908522 -0.0428983 
-0.842075 -0.90564 -0.0405105 
-0.848991 -0.903088 -0.0383697 
-0.85459 -0.900453 -0.0362289 
-0.860189 -0.897489 -0.0338411 
-0.865871 -0.89403 -0.0310416 
-0.871552 -0.890078 -0.0278304 
-0.877233 -0.884973 -0.0237958 
-0.881515 -0.880527 -0.0202553 
-0.703417 -0.920543 -0.048662 
-0.70951 -0.925401 -0.0524496 
-0.715274 -0.928366 -0.054755 
-0.722355 -0.930177 -0.0561548 
-0.730671 -0.931083 -0.0567312 
-0.738823 -0.930918 -0.0564842 
-0.747056 -0.930506 -0.0560725 
-0.755126 -0.929354 -0.0550021 
-0.763277 -0.92746 -0.0534376 
-0.771346 -0.925319 -0.0516262 
-0.779498 -0.923261 -0.0498971 
-0.787649 -0.921284 -0.0483327 
-0.795883 -0.919226 -0.0465212 
-0.804117 -0.917085 -0.0447921 
-0.812351 -0.915191 -0.0431453 
