ply
format ascii 1.0
comment VCGLIB generated
element vertex 1567
property float x
property float y
property float z
element face 0
property list uchar int vertex_indices
end_header
-0.429173 -0.8075 0.608265 
-0.390181 -0.823369 0.56163 
-0.371656 -0.842801 0.530734 
-0.382991 -0.863268 0.526006 
-0.400544 -0.880692 0.529115 
-0.420105 -0.895071 0.536369 
-0.439536 -0.906859 0.545502 
-0.451907 -0.913013 0.552303 
-0.283179 -0.474772 0.684306 
-0.293218 -0.49783 0.676274 
-0.304294 -0.520241 0.669732 
-0.316147 -0.542134 0.664227 
-0.328713 -0.563702 0.659758 
-0.341862 -0.585012 0.655936 
-0.355723 -0.605998 0.653216 
-0.369778 -0.626919 0.65056 
-0.384999 -0.647451 0.64933 
-0.400544 -0.668048 0.648358 
-0.41583 -0.68884 0.647127 
-0.429238 -0.708789 0.644601 
-0.368741 -0.817993 0.512015 
-0.379429 -0.838461 0.506704 
-0.396269 -0.855884 0.508971 
-0.414923 -0.870199 0.515189 
-0.435132 -0.882959 0.523998 
-0.450353 -0.891314 0.531705 
-0.292117 -0.46266 0.666947 
-0.301574 -0.484228 0.659499 
-0.313233 -0.506315 0.653604 
-0.325734 -0.527949 0.648876 
-0.338623 -0.549388 0.644666 
-0.352743 -0.570244 0.64201 
-0.36777 -0.590712 0.640521 
-0.383639 -0.61092 0.639938 
-0.400415 -0.63087 0.640456 
-0.417644 -0.650949 0.641363 
-0.432217 -0.667206 0.642593 
-0.364726 -0.789494 0.495822 
-0.373016 -0.809249 0.488892 
-0.388043 -0.826932 0.48941 
-0.405143 -0.841311 0.494009 
-0.423862 -0.854136 0.501133 
-0.441544 -0.864499 0.509295 
-0.301898 -0.455211 0.647969 
-0.311354 -0.474966 0.641881 
-0.322948 -0.495369 0.637088 
-0.335967 -0.516743 0.632878 
-0.349764 -0.537729 0.629704 
-0.364726 -0.558197 0.62802 
-0.379947 -0.576916 0.627826 
-0.395233 -0.594015 0.628927 
-0.410972 -0.611115 0.630546 
-0.427554 -0.62802 0.633007 
-0.443876 -0.642075 0.637217 
-0.361617 -0.765205 0.478658 
-0.369584 -0.78509 0.471404 
-0.384222 -0.802837 0.471468 
-0.400868 -0.817087 0.475549 
-0.419457 -0.829652 0.482674 
-0.436751 -0.839886 0.490317 
-0.309346 -0.445042 0.631582 
-0.319127 -0.464603 0.625818 
-0.330138 -0.483516 0.621672 
-0.341732 -0.502105 0.61811 
-0.354038 -0.520371 0.615519 
-0.367446 -0.538118 0.614288 
-0.38202 -0.555347 0.614483 
-0.397565 -0.572317 0.615908 
-0.414081 -0.588898 0.618434 
-0.430274 -0.604249 0.621543 
-0.447762 -0.617592 0.627113 
-0.461299 -0.625818 0.632878 
-0.359026 -0.742211 0.463437 
-0.364726 -0.759764 0.455988 
-0.376579 -0.776734 0.45411 
-0.3918 -0.791308 0.456701 
-0.409288 -0.803873 0.462659 
-0.427294 -0.815079 0.470108 
-0.438694 -0.820843 0.475678 
-0.315953 -0.43714 0.615584 
-0.324827 -0.453592 0.611309 
-0.333895 -0.469979 0.607164 
-0.343934 -0.485848 0.604314 
-0.354751 -0.501328 0.602371 
-0.366215 -0.516549 0.60114 
-0.378392 -0.531446 0.600881 
-0.39167 -0.54589 0.601852 
-0.405726 -0.56001 0.60386 
-0.420299 -0.57413 0.606386 
-0.435974 -0.587927 0.610078 
-0.453009 -0.599715 0.616232 
-0.4681 -0.607293 0.623615 
-0.357277 -0.723622 0.448539 
-0.362783 -0.741304 0.440896 
-0.373599 -0.757044 0.438953 
-0.386877 -0.770646 0.440573 
-0.401969 -0.782305 0.445107 
-0.417903 -0.792279 0.451389 
-0.431893 -0.800181 0.457607 
-0.321459 -0.428784 0.600881 
-0.329814 -0.44556 0.595893 
-0.3394 -0.461558 0.592461 
-0.349699 -0.477298 0.589805 
-0.36058 -0.492778 0.587927 
-0.372952 -0.507481 0.587732 
-0.385776 -0.522055 0.588186 
-0.399637 -0.536175 0.589805 
-0.414211 -0.5501 0.592396 
-0.429626 -0.563832 0.595829 
-0.445042 -0.576009 0.600298 
-0.460652 -0.584947 0.607099 
-0.476974 -0.592072 0.615649 
-0.355204 -0.70445 0.43578 
-0.359026 -0.719736 0.428331 
-0.36764 -0.734763 0.425027 
-0.379753 -0.748559 0.425481 
-0.393678 -0.760412 0.428849 
-0.408835 -0.770516 0.434355 
-0.423667 -0.77939 0.440443 
-0.433124 -0.783989 0.445107 
-0.327741 -0.424121 0.585206 
-0.336615 -0.440573 0.580867 
-0.346136 -0.456636 0.577304 
-0.357018 -0.471987 0.575361 
-0.368871 -0.486949 0.574584 
-0.381437 -0.501587 0.574584 
-0.395039 -0.515772 0.575879 
-0.409482 -0.529633 0.578211 
-0.423408 -0.542134 0.581061 
-0.436945 -0.553274 0.584688 
-0.452685 -0.563702 0.590582 
-0.470043 -0.571863 0.599197 
-0.482998 -0.576786 0.606386 
-0.352873 -0.687609 0.422242 
-0.356824 -0.70283 0.414988 
-0.365179 -0.717857 0.41149 
-0.377421 -0.731589 0.412073 
-0.391023 -0.743442 0.415053 
-0.405985 -0.753481 0.420364 
-0.421271 -0.762161 0.426971 
-0.430663 -0.76676 0.43144 
-0.332211 -0.417125 0.570633 
-0.341343 -0.433383 0.566617 
-0.351059 -0.449317 0.563314 
-0.36207 -0.464603 0.5615 
-0.374117 -0.479435 0.560917 
-0.387136 -0.493814 0.561435 
-0.400091 -0.506574 0.563055 
-0.412786 -0.51778 0.56571 
-0.425546 -0.529115 0.568431 
-0.439018 -0.54019 0.571993 
-0.454045 -0.549064 0.578211 
-0.469201 -0.556383 0.58553 
-0.484293 -0.562083 0.593821 
-0.351901 -0.673619 0.408964 
-0.355593 -0.688969 0.401451 
-0.364402 -0.703802 0.398471 
-0.375348 -0.716368 0.398666 
-0.387849 -0.72699 0.40158 
-0.402617 -0.73703 0.406697 
-0.417644 -0.745579 0.413045 
-0.427035 -0.750113 0.417449 
-0.336809 -0.411879 0.556383 
-0.344452 -0.425416 0.553145 
-0.352484 -0.438694 0.55023 
-0.361422 -0.451519 0.548481 
-0.371397 -0.46389 0.547898 
-0.38189 -0.476002 0.547833 
-0.393419 -0.487596 0.549064 
-0.405791 -0.498931 0.551137 
-0.41868 -0.510072 0.553922 
-0.432023 -0.521083 0.557355 
-0.444912 -0.530734 0.561306 
-0.458773 -0.538377 0.567394 
-0.475096 -0.545113 0.575879 
-0.488244 -0.549841 0.583198 
-0.350476 -0.659952 0.396593 
-0.353779 -0.673943 0.389662 
-0.361228 -0.687804 0.38623 
-0.371721 -0.700499 0.386035 
-0.383704 -0.711186 0.388302 
-0.396399 -0.720319 0.392383 
-0.409612 -0.727832 0.397824 
-0.422048 -0.734309 0.403459 
-0.340631 -0.405467 0.544141 
-0.348274 -0.419004 0.540838 
-0.356111 -0.432411 0.537794 
-0.365179 -0.445171 0.536175 
-0.375478 -0.457283 0.53598 
-0.38623 -0.469266 0.536175 
-0.397953 -0.480795 0.537535 
-0.410648 -0.491936 0.539996 
-0.423991 -0.502882 0.543235 
-0.437399 -0.513829 0.546538 
-0.451519 -0.522897 0.551914 
-0.464084 -0.529438 0.557614 
-0.47678 -0.534296 0.564415 
-0.489863 -0.53896 0.571669 
-0.349828 -0.644796 0.38746 
-0.351448 -0.658009 0.379882 
-0.356694 -0.671157 0.375089 
-0.365373 -0.683011 0.373988 
-0.376644 -0.693827 0.375607 
-0.388302 -0.703219 0.378587 
-0.400674 -0.710862 0.38325 
-0.414146 -0.718376 0.388885 
-0.42574 -0.723492 0.39465 
-0.3451 -0.402552 0.531252 
-0.353002 -0.415895 0.528273 
-0.361293 -0.428979 0.525811 
-0.370685 -0.441544 0.524581 
-0.380789 -0.453851 0.524062 
-0.391994 -0.465574 0.524775 
-0.403264 -0.475614 0.526718 
-0.413693 -0.484358 0.528985 
-0.424768 -0.492843 0.532094 
-0.435456 -0.501652 0.53462 
-0.44692 -0.510137 0.538118 
-0.459486 -0.516549 0.543882 
-0.471404 -0.521601 0.550036 
-0.484034 -0.526459 0.556642 
-0.492908 -0.529503 0.561565 
-0.349504 -0.634432 0.376708 
-0.350606 -0.647905 0.368418 
-0.356046 -0.660988 0.363948 
-0.364726 -0.672712 0.362847 
-0.374895 -0.682492 0.364337 
-0.385452 -0.690654 0.367122 
-0.397565 -0.698361 0.371462 
-0.411037 -0.705745 0.377226 
-0.422501 -0.710862 0.382797 
-0.348533 -0.396982 0.519399 
-0.35637 -0.410324 0.516355 
-0.364531 -0.423538 0.513699 
-0.373988 -0.436103 0.512468 
-0.384481 -0.448151 0.512339 
-0.396204 -0.459615 0.513634 
-0.407604 -0.46959 0.515707 
-0.419522 -0.47937 0.518427 
-0.432023 -0.488892 0.521925 
-0.443228 -0.497442 0.525099 
-0.456377 -0.505214 0.530345 
-0.469849 -0.511238 0.537017 
-0.482479 -0.516031 0.543688 
-0.493814 -0.519723 0.5501 
-0.350152 -0.622514 0.367705 
-0.349375 -0.633785 0.359544 
-0.352613 -0.646221 0.353779 
-0.359868 -0.658527 0.351189 
-0.37049 -0.669538 0.352095 
-0.382279 -0.678736 0.35514 
-0.394456 -0.686314 0.359609 
-0.407734 -0.693633 0.365114 
-0.421012 -0.699657 0.371527 
-0.353779 -0.394844 0.505279 
-0.361811 -0.408122 0.502429 
-0.37049 -0.421012 0.500421 
-0.379882 -0.433642 0.499061 
-0.391282 -0.445171 0.499968 
-0.403264 -0.456571 0.501457 
-0.416672 -0.467323 0.504502 
-0.430598 -0.477816 0.508323 
-0.445171 -0.488179 0.512922 
-0.460198 -0.496794 0.51901 
-0.474318 -0.502494 0.526329 
-0.48792 -0.506833 0.533972 
-0.496988 -0.509748 0.539089 
-0.349699 -0.615001 0.353779 
-0.349893 -0.628927 0.344711 
-0.354557 -0.64227 0.339465 
-0.363171 -0.654058 0.338234 
-0.375542 -0.664421 0.34089 
-0.38895 -0.672971 0.345683 
-0.402422 -0.680161 0.351318 
-0.415118 -0.686184 0.357212 
-0.358508 -0.392124 0.48941 
-0.368482 -0.407798 0.486495 
-0.380012 -0.422696 0.4852 
-0.393095 -0.436881 0.485588 
-0.406827 -0.449058 0.487726 
-0.42017 -0.45981 0.49077 
-0.435132 -0.469849 0.495628 
-0.449835 -0.480148 0.500291 
-0.466416 -0.487985 0.507999 
-0.48371 -0.494009 0.517456 
-0.495239 -0.497506 0.523998 
-0.348274 -0.607099 0.33791 
-0.349504 -0.622061 0.328972 
-0.356888 -0.637412 0.324503 
-0.368482 -0.649524 0.325345 
-0.382991 -0.659045 0.330203 
-0.398212 -0.666883 0.33668 
-0.413369 -0.673489 0.343999 
-0.424056 -0.677311 0.349699 
-0.364661 -0.39031 0.472764 
-0.375024 -0.405791 0.470302 
-0.386813 -0.420558 0.469331 
-0.400933 -0.434225 0.470691 
-0.416024 -0.445754 0.474318 
-0.430404 -0.455988 0.478399 
-0.445819 -0.465833 0.483775 
-0.461105 -0.474189 0.490187 
-0.477427 -0.480472 0.498543 
-0.491159 -0.484617 0.506315 
-0.348144 -0.597059 0.323337 
-0.349699 -0.613447 0.313751 
-0.357212 -0.628732 0.309346 
-0.369195 -0.640715 0.310577 
-0.384222 -0.649977 0.315953 
-0.400155 -0.657491 0.323078 
-0.416737 -0.663514 0.331692 
-0.369648 -0.386294 0.455405 
-0.382149 -0.404236 0.452814 
-0.395686 -0.419846 0.452555 
-0.411102 -0.432865 0.455276 
-0.428719 -0.444912 0.460457 
-0.445819 -0.455664 0.466351 
-0.463566 -0.464473 0.474189 
-0.482739 -0.471144 0.484358 
-0.494462 -0.474448 0.491094 
-0.348468 -0.587538 0.307533 
-0.350347 -0.605415 0.297234 
-0.359738 -0.623033 0.29283 
-0.374117 -0.635469 0.295485 
-0.390699 -0.644148 0.302286 
-0.408058 -0.651208 0.310707 
-0.419652 -0.654447 0.317313 
-0.375283 -0.382538 0.435909 
-0.387849 -0.400415 0.433448 
-0.403459 -0.416802 0.434095 
-0.421076 -0.430468 0.438046 
-0.439666 -0.442062 0.444265 
-0.458708 -0.451843 0.452231 
-0.477233 -0.458708 0.461753 
-0.491612 -0.4624 0.470043 
-0.349699 -0.576527 0.291146 
-0.350606 -0.594922 0.27994 
-0.35922 -0.612863 0.274759 
-0.373988 -0.626724 0.276767 
-0.392577 -0.636052 0.284474 
-0.410843 -0.642723 0.293737 
-0.423279 -0.645638 0.30112 
-0.380854 -0.378069 0.412397 
-0.396852 -0.399378 0.410065 
-0.417255 -0.416802 0.413434 
-0.440443 -0.431246 0.421012 
-0.464473 -0.441933 0.431958 
-0.488957 -0.449446 0.445236 
-0.350929 -0.569532 0.267893 
-0.353391 -0.590388 0.256364 
-0.365309 -0.610014 0.252607 
-0.38461 -0.623486 0.258048 
-0.406568 -0.631582 0.268929 
-0.420947 -0.635145 0.277155 
-0.387201 -0.374895 0.38176 
-0.407734 -0.399054 0.380854 
-0.434355 -0.416737 0.388367 
-0.462141 -0.428914 0.400738 
-0.489928 -0.436298 0.416283 
-0.352484 -0.563638 0.237904 
-0.358443 -0.589157 0.226245 
-0.377874 -0.610208 0.226893 
-0.405985 -0.621737 0.239782 
-0.423732 -0.625494 0.250146 
-0.392642 -0.371073 0.34361 
-0.418809 -0.39737 0.34523 
-0.450288 -0.41434 0.35637 
-0.482609 -0.422501 0.374182 
-0.50217 -0.425222 0.386359 
-0.353715 -0.558262 0.200855 
-0.364467 -0.587862 0.190168 
-0.390375 -0.607682 0.195997 
-0.416931 -0.61526 0.209858 
-0.398342 -0.369195 0.299307 
-0.428266 -0.395039 0.303517 
-0.464214 -0.409677 0.318738 
-0.497377 -0.413952 0.339076 
-0.471987 -0.443487 0.304165 
-0.395427 -0.501069 0.217631 
-0.35365 -0.54887 0.160567 
-0.365762 -0.580867 0.149556 
-0.396593 -0.601593 0.157912 
-0.422437 -0.607876 0.171643 
-0.400026 -0.365438 0.251506 
-0.432541 -0.391282 0.257206 
-0.470821 -0.40456 0.274176 
-0.497895 -0.407345 0.290628 
-0.468618 -0.434549 0.255522 
-0.395881 -0.489734 0.175335 
-0.353132 -0.53747 0.119243 
-0.364208 -0.57141 0.106548 
-0.394456 -0.593691 0.113284 
-0.421724 -0.600816 0.126951 
-0.396982 -0.364078 0.200337 
-0.428914 -0.389857 0.205648 
-0.46687 -0.402941 0.221841 
-0.492778 -0.411685 0.2335 
-0.396982 -0.481249 0.132586 
-0.352873 -0.525552 0.0790206 
-0.360321 -0.559557 0.0642529 
-0.38746 -0.584494 0.0671675 
-0.418615 -0.594404 0.0812228 
-0.386424 -0.361293 0.147484 
-0.415377 -0.389986 0.149103 
-0.448993 -0.406309 0.160567 
-0.466805 -0.417449 0.164972 
-0.38746 -0.47665 0.0826478 
-0.351253 -0.518492 0.0367252 
-0.360192 -0.553209 0.0226699 
-0.387719 -0.579377 0.0250664 
-0.420299 -0.590194 0.0390569 
-0.370231 -0.361293 0.0911976 
-0.394391 -0.392189 0.0886715 
-0.427683 -0.413369 0.0970917 
-0.437269 -0.429432 0.093918 
-0.375866 -0.470497 0.0340695 
-0.347691 -0.505732 -0.0023966 
-0.3565 -0.54045 -0.0162576 
-0.381501 -0.569143 -0.0169701 
-0.417449 -0.584364 -0.00382157 
-0.348468 -0.359479 0.0335513 
-0.35773 -0.396269 0.0189779 
-0.362977 -0.4271 0.00531117 
-0.344647 -0.464084 -0.0255846 
-0.342963 -0.498219 -0.0451454 
-0.356888 -0.533389 -0.0559622 
-0.382862 -0.561435 -0.0558974 
-0.417449 -0.577175 -0.0441739 
-0.439083 -0.582033 -0.0341991 
-0.328648 -0.358119 -0.0224756 
-0.330332 -0.393743 -0.0405467 
-0.331887 -0.428784 -0.0583588 
-0.334478 -0.464149 -0.0757822 
-0.34523 -0.499385 -0.0884773 
-0.36641 -0.532483 -0.0939828 
-0.396658 -0.557225 -0.0898375 
-0.432541 -0.571086 -0.0768833 
-0.316989 -0.348857 -0.0687869 
-0.319645 -0.385258 -0.0864046 
-0.325021 -0.421141 -0.102274 
-0.333636 -0.456247 -0.11594 
-0.34931 -0.490446 -0.125202 
-0.372693 -0.520953 -0.128182 
-0.4032 -0.544077 -0.123389 
-0.437787 -0.558456 -0.111924 
-0.312326 -0.337781 -0.10888 
-0.316277 -0.373405 -0.125138 
-0.323726 -0.409612 -0.139841 
-0.33655 -0.44556 -0.151564 
-0.35637 -0.479176 -0.1583 
-0.383185 -0.508129 -0.158819 
-0.415377 -0.529115 -0.152406 
-0.446791 -0.54181 -0.142173 
-0.312132 -0.320163 -0.14282 
-0.316018 -0.355917 -0.158948 
-0.324373 -0.39167 -0.172809 
-0.338752 -0.426841 -0.183237 
-0.359738 -0.459939 -0.189132 
-0.387396 -0.486949 -0.188419 
-0.419263 -0.50638 -0.181812 
-0.452102 -0.519982 -0.171643 
-0.31388 -0.304942 -0.176112 
-0.318414 -0.340372 -0.191593 
-0.327741 -0.375607 -0.204612 
-0.342574 -0.408964 -0.213874 
-0.36343 -0.439083 -0.218408 
-0.391735 -0.464279 -0.216724 
-0.425287 -0.482998 -0.20921 
-0.459291 -0.495952 -0.198523 
-0.315694 -0.286806 -0.20649 
-0.320876 -0.321912 -0.221323 
-0.330397 -0.355528 -0.233241 
-0.344841 -0.387655 -0.242049 
-0.366475 -0.417514 -0.246195 
-0.394844 -0.441026 -0.243863 
-0.427942 -0.458255 -0.23622 
-0.458968 -0.469331 -0.22644 
-0.31958 -0.268541 -0.232981 
-0.324114 -0.300861 -0.246583 
-0.332534 -0.3337 -0.258566 
-0.345942 -0.364985 -0.267375 
-0.36479 -0.39316 -0.272103 
-0.390828 -0.416283 -0.270937 
-0.421854 -0.432671 -0.264201 
-0.450483 -0.442904 -0.255522 
-0.326122 -0.244122 -0.252089 
-0.328713 -0.274564 -0.265561 
-0.333959 -0.304683 -0.277609 
-0.342315 -0.334283 -0.287972 
-0.355528 -0.362394 -0.295421 
-0.374441 -0.38746 -0.298595 
-0.40022 -0.40605 -0.295615 
-0.430339 -0.418291 -0.287519 
-0.455923 -0.425222 -0.278839 
-0.333053 -0.223849 -0.270808 
-0.335449 -0.25306 -0.283697 
-0.338882 -0.281171 -0.29555 
-0.343675 -0.3098 -0.307015 
-0.352095 -0.337587 -0.316471 
-0.364596 -0.364531 -0.323596 
-0.385258 -0.387201 -0.324956 
-0.413693 -0.401451 -0.318868 
-0.443876 -0.409029 -0.308699 
-0.340242 -0.200466 -0.28713 
-0.343027 -0.229678 -0.299696 
-0.345748 -0.258631 -0.312132 
-0.348468 -0.287065 -0.324373 
-0.352613 -0.314334 -0.335384 
-0.359091 -0.341538 -0.345424 
-0.369907 -0.367705 -0.352873 
-0.389857 -0.38759 -0.353326 
-0.416866 -0.397824 -0.346136 
-0.441738 -0.401645 -0.336874 
-0.348662 -0.178315 -0.30274 
-0.352225 -0.205648 -0.31401 
-0.355269 -0.232981 -0.32541 
-0.356824 -0.259214 -0.336939 
-0.357471 -0.285576 -0.349051 
-0.358637 -0.312844 -0.361293 
-0.361552 -0.340372 -0.372887 
-0.368677 -0.366863 -0.382084 
-0.385064 -0.388432 -0.384934 
-0.411361 -0.39899 -0.378392 
-0.43565 -0.401451 -0.369065 
-0.358443 -0.153896 -0.315824 
-0.362977 -0.180906 -0.326446 
-0.367576 -0.207656 -0.336874 
-0.369713 -0.233888 -0.34808 
-0.369001 -0.259732 -0.360386 
-0.366475 -0.284669 -0.373016 
-0.363625 -0.309282 -0.385582 
-0.362394 -0.334154 -0.397629 
-0.364272 -0.360257 -0.408835 
-0.37185 -0.38623 -0.417514 
-0.389792 -0.403783 -0.417838 
-0.414211 -0.409159 -0.409936 
-0.435197 -0.40864 -0.400803 
-0.368741 -0.13304 -0.328972 
-0.374377 -0.157912 -0.33804 
-0.380595 -0.182136 -0.34659 
-0.385129 -0.207267 -0.356176 
-0.385711 -0.232787 -0.36764 
-0.381113 -0.257594 -0.380919 
-0.375154 -0.281106 -0.394132 
-0.368806 -0.304424 -0.407475 
-0.362783 -0.328713 -0.421076 
-0.359674 -0.352678 -0.433318 
-0.359091 -0.376449 -0.444329 
-0.363236 -0.400738 -0.453527 
-0.376773 -0.42017 -0.456636 
-0.399119 -0.427942 -0.450871 
-0.376514 -0.110629 -0.340437 
-0.383898 -0.134659 -0.348339 
-0.392901 -0.157458 -0.35501 
-0.400415 -0.177732 -0.361163 
-0.399378 -0.210894 -0.376644 
-0.38908 -0.257141 -0.401904 
-0.377939 -0.29134 -0.421919 
-0.368482 -0.312844 -0.43552 
-0.360645 -0.334672 -0.448604 
-0.35514 -0.356565 -0.460716 
-0.351966 -0.378392 -0.471792 
-0.350929 -0.40184 -0.482803 
-0.354557 -0.425805 -0.492066 
-0.36492 -0.447827 -0.497765 
-0.377356 -0.461558 -0.498737 
-0.383509 -0.0928817 -0.352743 
-0.392577 -0.116005 -0.359479 
-0.404106 -0.137444 -0.364531 
-0.414729 -0.155839 -0.368547 
-0.370426 -0.31414 -0.457478 
-0.361617 -0.333247 -0.469525 
-0.353779 -0.353067 -0.481508 
-0.347885 -0.373146 -0.492843 
-0.343351 -0.393743 -0.503854 
-0.339854 -0.415053 -0.5148 
-0.338234 -0.436557 -0.525099 
-0.339076 -0.458126 -0.534361 
-0.342509 -0.479759 -0.542587 
-0.350735 -0.499061 -0.547898 
-0.363106 -0.512404 -0.54887 
-0.388108 -0.0727379 -0.364272 
-0.397306 -0.0940475 -0.370167 
-0.410584 -0.11458 -0.374053 
-0.42561 -0.133947 -0.376708 
-0.435391 -0.145929 -0.378198 
-0.36764 -0.324114 -0.484164 
-0.357083 -0.342315 -0.496341 
-0.348662 -0.36071 -0.507805 
-0.340696 -0.380012 -0.519529 
-0.334024 -0.398471 -0.530345 
-0.327677 -0.417903 -0.541421 
-0.323661 -0.437399 -0.551655 
-0.321135 -0.457413 -0.561435 
-0.320617 -0.477622 -0.570568 
-0.321523 -0.496923 -0.578794 
-0.325215 -0.516225 -0.585919 
-0.333182 -0.535138 -0.591165 
-0.345424 -0.550942 -0.593367 
-0.362847 -0.562342 -0.591554 
-0.376061 -0.567135 -0.58838 
-0.393419 -0.0598484 -0.378263 
-0.403394 -0.0789559 -0.382797 
-0.416802 -0.0958612 -0.385064 
-0.431505 -0.112054 -0.386489 
-0.444783 -0.123713 -0.386554 
-0.36071 -0.333377 -0.511173 
-0.350152 -0.349828 -0.522443 
-0.339789 -0.367381 -0.534167 
-0.330267 -0.384287 -0.545307 
-0.322042 -0.401775 -0.556189 
-0.315435 -0.419652 -0.566617 
-0.310512 -0.438047 -0.576527 
-0.306885 -0.456895 -0.586178 
-0.305331 -0.476002 -0.595181 
-0.305007 -0.495628 -0.60386 
-0.306885 -0.514088 -0.611244 
-0.310966 -0.532936 -0.617851 
-0.318544 -0.551655 -0.623033 
-0.329814 -0.567653 -0.625623 
-0.344452 -0.581191 -0.625753 
-0.361552 -0.59136 -0.623486 
-0.3804 -0.597189 -0.618563 
-0.396269 -0.0463113 -0.391282 
-0.40728 -0.0648358 -0.395168 
-0.421983 -0.0809638 -0.396658 
-0.437787 -0.0946953 -0.396658 
-0.453721 -0.104929 -0.395103 
-0.349569 -0.344193 -0.538636 
-0.338364 -0.359155 -0.549453 
-0.329037 -0.372952 -0.559039 
-0.319775 -0.388043 -0.569143 
-0.311743 -0.403718 -0.579053 
-0.305719 -0.419846 -0.58825 
-0.300538 -0.436751 -0.597578 
-0.29691 -0.45411 -0.606451 
-0.294579 -0.471987 -0.615131 
-0.293996 -0.488892 -0.622644 
-0.294838 -0.506445 -0.629898 
-0.29704 -0.524581 -0.636894 
-0.301574 -0.54168 -0.642529 
-0.308375 -0.557808 -0.646868 
-0.317896 -0.5729 -0.649783 
-0.32962 -0.585984 -0.650884 
-0.343675 -0.597059 -0.650172 
-0.359479 -0.606451 -0.648034 
-0.376967 -0.612799 -0.643889 
-0.392772 -0.615908 -0.639031 
-0.398083 -0.0348468 -0.402617 
-0.407798 -0.0505862 -0.405791 
-0.420299 -0.0645767 -0.407216 
-0.434937 -0.0773366 -0.40728 
-0.450547 -0.0877648 -0.40605 
-0.463825 -0.0929464 -0.403329 
-0.344517 -0.346849 -0.55729 
-0.334024 -0.359803 -0.566876 
-0.323143 -0.374312 -0.577304 
-0.314787 -0.387331 -0.586113 
-0.307727 -0.401127 -0.594663 
-0.30138 -0.41583 -0.603407 
-0.296392 -0.431181 -0.611827 
-0.292053 -0.447438 -0.620442 
-0.289332 -0.462724 -0.62802 
-0.288361 -0.477103 -0.634562 
-0.287842 -0.492389 -0.641298 
-0.28862 -0.508453 -0.64784 
-0.290433 -0.523998 -0.653864 
-0.294125 -0.538636 -0.658721 
-0.299113 -0.552756 -0.662931 
-0.305978 -0.566099 -0.666105 
-0.31414 -0.578988 -0.668502 
-0.324632 -0.591165 -0.669733 
-0.337846 -0.6025 -0.669473 
-0.352031 -0.612345 -0.668178 
-0.366863 -0.619535 -0.665522 
-0.38325 -0.62517 -0.661442 
-0.402487 -0.628732 -0.655613 
-0.397565 -0.0204029 -0.410454 
-0.404495 -0.0343934 -0.413952 
-0.413369 -0.0470885 -0.416154 
-0.424509 -0.0583587 -0.416866 
-0.437464 -0.0685925 -0.416543 
-0.452231 -0.07779 -0.415053 
-0.465186 -0.0827126 -0.412397 
-0.334737 -0.355787 -0.577693 
-0.324891 -0.368223 -0.586761 
-0.314917 -0.382084 -0.596477 
-0.307533 -0.39452 -0.604508 
-0.302157 -0.40592 -0.611374 
-0.297169 -0.418421 -0.618563 
-0.2927 -0.431958 -0.626012 
-0.289332 -0.444912 -0.632813 
-0.286806 -0.458644 -0.639679 
-0.285446 -0.473152 -0.64635 
-0.284669 -0.487208 -0.652633 
-0.284669 -0.500874 -0.658398 
-0.285835 -0.513958 -0.663515 
-0.287648 -0.526718 -0.668308 
-0.291081 -0.540061 -0.672712 
-0.296198 -0.554051 -0.676793 
-0.30261 -0.567524 -0.680161 
-0.310188 -0.580543 -0.682881 
-0.319451 -0.591813 -0.684177 
-0.329425 -0.601593 -0.6845 
-0.340955 -0.610856 -0.684047 
-0.353132 -0.618823 -0.682752 
-0.365179 -0.625623 -0.681003 
-0.378651 -0.630805 -0.678023 
-0.393031 -0.634562 -0.674007 
-0.406762 -0.637282 -0.669927 
-0.398148 -0.0093918 -0.418032 
-0.403005 -0.0229937 -0.422048 
-0.41149 -0.0359479 -0.424574 
-0.422113 -0.0476067 -0.425675 
-0.434549 -0.0581644 -0.425675 
-0.447179 -0.0669085 -0.424768 
-0.461364 -0.0729322 -0.422178 
-0.473476 -0.0756526 -0.41881 
-0.333506 -0.354816 -0.589093 
-0.324309 -0.365373 -0.597124 
-0.316925 -0.37496 -0.603925 
-0.30967 -0.385906 -0.611309 
-0.303323 -0.397824 -0.618693 
-0.297752 -0.409159 -0.625623 
-0.292895 -0.42153 -0.632619 
-0.288814 -0.434873 -0.639808 
-0.285835 -0.447503 -0.646285 
-0.283827 -0.459615 -0.65218 
-0.282466 -0.471209 -0.657556 
-0.282013 -0.48384 -0.663061 
-0.281819 -0.497571 -0.668955 
-0.282466 -0.510849 -0.674331 
-0.28428 -0.523544 -0.67906 
-0.28713 -0.535786 -0.683205 
-0.291081 -0.547574 -0.686767 
-0.295226 -0.559168 -0.690135 
-0.300797 -0.570309 -0.692791 
-0.307209 -0.581126 -0.694993 
-0.314787 -0.591554 -0.696612 
-0.324179 -0.601529 -0.69726 
-0.334996 -0.61105 -0.697131 
-0.346331 -0.619211 -0.696289 
-0.357342 -0.626271 -0.695123 
-0.368741 -0.632036 -0.69318 
-0.380206 -0.636505 -0.690654 
-0.394067 -0.640456 -0.687026 
-0.407863 -0.643241 -0.682946 
-0.418032 -0.644407 -0.679643 
-0.397565 0.00161928 -0.425805 
-0.401127 -0.0111406 -0.42995 
-0.407928 -0.0233823 -0.432735 
-0.418032 -0.035365 -0.43416 
-0.428979 -0.0450807 -0.434355 
-0.439731 -0.0531123 -0.433836 
-0.451843 -0.0603666 -0.432606 
-0.465186 -0.0650301 -0.429691 
-0.323596 -0.361941 -0.606969 
-0.316147 -0.371591 -0.613835 
-0.308699 -0.382602 -0.621284 
-0.301315 -0.394974 -0.629186 
-0.295485 -0.406503 -0.636181 
-0.291275 -0.417125 -0.642205 
-0.287519 -0.428849 -0.648553 
-0.284215 -0.441609 -0.655159 
-0.281948 -0.453915 -0.661183 
-0.280459 -0.465574 -0.666623 
-0.279746 -0.476909 -0.671676 
-0.279034 -0.488179 -0.676663 
-0.279034 -0.499061 -0.681262 
-0.27994 -0.510784 -0.68586 
-0.281754 -0.52348 -0.690524 
-0.284733 -0.535656 -0.694605 
-0.28849 -0.547445 -0.698232 
-0.292895 -0.558974 -0.701535 
-0.298012 -0.570244 -0.704385 
-0.304489 -0.581061 -0.706522 
-0.311613 -0.591619 -0.708271 
-0.32094 -0.601529 -0.708984 
-0.330267 -0.610208 -0.709113 
-0.33953 -0.617721 -0.708725 
-0.350023 -0.624911 -0.707818 
-0.361811 -0.631777 -0.706263 
-0.373988 -0.637347 -0.703996 
-0.386294 -0.641687 -0.701147 
-0.401321 -0.645379 -0.697001 
-0.416154 -0.647969 -0.692532 
-0.398471 0.00842023 -0.435326 
-0.402358 -0.00401582 -0.439212 
-0.408317 -0.0150917 -0.441738 
-0.415571 -0.0253255 -0.443487 
-0.425092 -0.0340048 -0.443746 
-0.435585 -0.042166 -0.443423 
-0.447309 -0.0496794 -0.442386 
-0.459162 -0.0553145 -0.440443 
-0.47244 -0.0581644 -0.436686 
-0.320163 -0.364078 -0.620636 
-0.312974 -0.373535 -0.627243 
-0.306497 -0.382538 -0.633461 
-0.300343 -0.392836 -0.640003 
-0.294773 -0.404171 -0.646804 
-0.290304 -0.414923 -0.652892 
-0.286547 -0.426647 -0.65924 
-0.283179 -0.439471 -0.665846 
-0.280588 -0.451778 -0.671935 
-0.279034 -0.463502 -0.67744 
-0.278127 -0.474901 -0.682492 
-0.277544 -0.486107 -0.68735 
-0.27735 -0.496988 -0.692014 
-0.277868 -0.507611 -0.696289 
-0.279293 -0.519075 -0.700564 
-0.282013 -0.531317 -0.704774 
-0.28577 -0.543105 -0.708336 
-0.289786 -0.554764 -0.711834 
-0.294449 -0.566164 -0.714878 
-0.300149 -0.577239 -0.717404 
-0.30682 -0.587927 -0.719412 
-0.314917 -0.598225 -0.720707 
-0.323467 -0.607099 -0.721225 
-0.332211 -0.614742 -0.721161 
-0.341667 -0.622191 -0.720707 
-0.352354 -0.629315 -0.719671 
-0.363301 -0.63521 -0.717987 
-0.373988 -0.639938 -0.715979 
-0.385582 -0.644472 -0.713582 
-0.396917 -0.64784 -0.710733 
-0.407863 -0.650172 -0.707559 
-0.420688 -0.652115 -0.703608 
-0.40022 0.0182006 -0.443746 
-0.402746 0.0046635 -0.44854 
-0.407993 -0.00686574 -0.451519 
-0.415377 -0.01697 -0.453138 
-0.424445 -0.026038 -0.453786 
-0.434873 -0.0341991 -0.453527 
-0.446402 -0.0417773 -0.45262 
-0.460198 -0.0480601 -0.450223 
-0.475614 -0.051493 -0.445884 
-0.320163 -0.362459 -0.632036 
-0.31265 -0.372045 -0.638837 
-0.305136 -0.383056 -0.646091 
-0.297947 -0.395233 -0.653799 
-0.292636 -0.406373 -0.660341 
-0.28849 -0.416931 -0.666235 
-0.284733 -0.428525 -0.672518 
-0.281689 -0.441156 -0.67893 
-0.279357 -0.453268 -0.684824 
-0.277932 -0.464926 -0.690135 
-0.27722 -0.476261 -0.695058 
-0.276831 -0.487273 -0.699786 
-0.276831 -0.498089 -0.70432 
-0.277479 -0.509942 -0.709049 
-0.279487 -0.522443 -0.713582 
-0.282207 -0.534685 -0.717728 
-0.285835 -0.546473 -0.721355 
-0.289786 -0.558132 -0.724788 
-0.294967 -0.569337 -0.727573 
-0.300797 -0.580284 -0.730034 
-0.307662 -0.590971 -0.731913 
-0.316018 -0.60114 -0.733014 
-0.324632 -0.610014 -0.733467 
-0.333376 -0.617592 -0.733402 
-0.343286 -0.624911 -0.732819 
-0.354103 -0.632101 -0.731718 
-0.365114 -0.63793 -0.730034 
-0.375672 -0.642723 -0.728156 
-0.387331 -0.647257 -0.725695 
-0.401451 -0.651338 -0.722132 
-0.415053 -0.654317 -0.718311 
-0.427683 -0.656325 -0.714489 
-0.400868 0.0213744 -0.456053 
-0.404236 0.00842023 -0.460328 
-0.411167 -0.00382149 -0.463048 
-0.420234 -0.0147678 -0.464408 
-0.429885 -0.0234471 -0.464667 
-0.441091 -0.0312196 -0.463955 
-0.453721 -0.0381501 -0.4624 
-0.467517 -0.0425546 -0.459162 
-0.477298 -0.0439148 -0.456118 
-0.313492 -0.368612 -0.649783 
-0.306626 -0.377809 -0.656066 
-0.300214 -0.388173 -0.662673 
-0.294708 -0.399508 -0.669344 
-0.289915 -0.410324 -0.675562 
-0.286094 -0.420623 -0.681262 
-0.282661 -0.432088 -0.687221 
-0.279876 -0.444394 -0.693374 
-0.277932 -0.456377 -0.699009 
-0.276702 -0.467906 -0.704191 
-0.276184 -0.479047 -0.708984 
-0.276184 -0.489863 -0.713453 
-0.276508 -0.501911 -0.718311 
-0.277738 -0.514735 -0.723233 
-0.28007 -0.527107 -0.727573 
-0.282855 -0.539219 -0.731718 
-0.286482 -0.550942 -0.735281 
-0.291016 -0.562342 -0.73839 
-0.296327 -0.573483 -0.741046 
-0.30274 -0.584299 -0.743183 
-0.310253 -0.594728 -0.744737 
-0.318997 -0.604832 -0.745644 
-0.327741 -0.613641 -0.746098 
-0.337004 -0.621154 -0.745774 
-0.346719 -0.628538 -0.745256 
-0.358184 -0.635533 -0.743895 
-0.369324 -0.641363 -0.742276 
-0.3804 -0.646026 -0.740139 
-0.392707 -0.650496 -0.737483 
-0.407215 -0.654447 -0.733726 
-0.420623 -0.65762 -0.730099 
-0.429885 -0.659175 -0.727379 
-0.401904 0.02688 -0.467453 
-0.405272 0.0139258 -0.471663 
-0.411555 0.00310901 -0.473994 
-0.419716 -0.0064771 -0.47516 
-0.429173 -0.015286 -0.475614 
-0.440054 -0.0232528 -0.475095 
-0.452685 -0.0302481 -0.473606 
-0.466028 -0.0348468 -0.470691 
-0.475743 -0.036207 -0.467647 
-0.313103 -0.367057 -0.662349 
-0.306885 -0.375866 -0.668243 
-0.300279 -0.386359 -0.674914 
-0.294838 -0.397629 -0.681456 
-0.290045 -0.408446 -0.687609 
-0.286223 -0.418745 -0.693309 
-0.282466 -0.430274 -0.699398 
-0.279746 -0.44258 -0.705486 
-0.277868 -0.454434 -0.710992 
-0.276443 -0.466028 -0.716238 
-0.275925 -0.477168 -0.721031 
-0.27586 -0.48805 -0.7255 
-0.276248 -0.499968 -0.730358 
-0.277479 -0.512792 -0.735281 
-0.279681 -0.525228 -0.739621 
-0.282661 -0.537211 -0.743636 
-0.286223 -0.548999 -0.747263 
-0.290563 -0.560464 -0.750437 
-0.296068 -0.57154 -0.752963 
-0.302416 -0.582292 -0.755101 
-0.309541 -0.592849 -0.756849 
-0.317702 -0.603083 -0.75808 
-0.327223 -0.612993 -0.758728 
-0.337133 -0.621543 -0.758598 
-0.347108 -0.628862 -0.758016 
-0.357925 -0.635987 -0.756979 
-0.368936 -0.641946 -0.755425 
-0.379882 -0.646674 -0.753417 
-0.392124 -0.651078 -0.750826 
-0.40605 -0.655224 -0.747458 
-0.422307 -0.658916 -0.743053 
-0.403912 0.0286936 -0.479824 
-0.407993 0.0163223 -0.483581 
-0.414599 0.00569983 -0.485718 
-0.423343 -0.00356243 -0.48656 
-0.433318 -0.0119827 -0.486625 
-0.444394 -0.0198847 -0.486107 
-0.457737 -0.0263618 -0.484164 
-0.473606 -0.0294061 -0.47963 
-0.311743 -0.36926 -0.676857 
-0.304942 -0.379817 -0.683658 
-0.298271 -0.39167 -0.690848 
-0.293154 -0.402682 -0.697131 
-0.288879 -0.413174 -0.70309 
-0.284669 -0.424963 -0.709372 
-0.281171 -0.437658 -0.71585 
-0.279098 -0.449641 -0.721485 
-0.277738 -0.46117 -0.726731 
-0.276702 -0.472569 -0.731783 
-0.276767 -0.484682 -0.736706 
-0.277155 -0.49796 -0.742082 
-0.278386 -0.510784 -0.747004 
-0.280523 -0.523156 -0.751409 
-0.283308 -0.535203 -0.755489 
-0.286936 -0.546991 -0.759052 
-0.291016 -0.558521 -0.762355 
-0.296716 -0.569467 -0.764816 
-0.303064 -0.580284 -0.766954 
-0.309994 -0.590841 -0.768768 
-0.317637 -0.60127 -0.770257 
-0.326899 -0.611179 -0.771034 
-0.337328 -0.620895 -0.771293 
-0.347691 -0.629315 -0.77097 
-0.358249 -0.63657 -0.770192 
-0.369001 -0.642529 -0.768768 
-0.379817 -0.647322 -0.766824 
-0.391994 -0.651791 -0.764233 
-0.405467 -0.656001 -0.761189 
-0.418162 -0.65924 -0.757951 
-0.42723 -0.660988 -0.75536 
-0.405337 0.0336809 -0.4909 
-0.409677 0.021504 -0.494462 
-0.416219 0.0108168 -0.496664 
-0.424768 0.00148973 -0.497636 
-0.434808 -0.0069305 -0.497765 
-0.446013 -0.014703 -0.497118 
-0.457283 -0.020662 -0.495757 
-0.470108 -0.0237062 -0.492454 
-0.311484 -0.372498 -0.691431 
-0.303906 -0.384869 -0.699139 
-0.297493 -0.396528 -0.706134 
-0.292636 -0.40728 -0.712287 
-0.28862 -0.417579 -0.717987 
-0.284993 -0.428979 -0.724011 
-0.281884 -0.441415 -0.730164 
-0.280005 -0.453268 -0.735605 
-0.278775 -0.464732 -0.740786 
-0.278192 -0.475873 -0.745515 
-0.278321 -0.48792 -0.750437 
-0.278969 -0.501004 -0.755684 
-0.280523 -0.513634 -0.760412 
-0.282726 -0.525941 -0.764752 
-0.286029 -0.537794 -0.768573 
-0.289915 -0.549388 -0.771941 
-0.294708 -0.560658 -0.774921 
-0.300149 -0.571734 -0.777511 
-0.306756 -0.582421 -0.779519 
-0.313816 -0.592979 -0.781333 
-0.321653 -0.603277 -0.782758 
-0.330462 -0.613382 -0.78373 
-0.339659 -0.623356 -0.784572 
-0.349699 -0.631971 -0.784507 
-0.359609 -0.639355 -0.784053 
-0.371786 -0.646285 -0.782499 
-0.385582 -0.651532 -0.779778 
-0.399896 -0.655483 -0.776281 
-0.415636 -0.65924 -0.772265 
-0.427035 -0.661636 -0.769156 
-0.407475 0.0343286 -0.504566 
-0.413369 0.0213097 -0.507934 
-0.423149 0.00906793 -0.509748 
-0.43416 -0.00051818 -0.510007 
-0.445042 -0.00848501 -0.509619 
-0.45819 -0.0150269 -0.50787 
-0.470885 -0.0182007 -0.504761 
-0.31388 -0.370944 -0.703867 
-0.306173 -0.38338 -0.711575 
-0.29989 -0.394909 -0.718505 
-0.294708 -0.405791 -0.724788 
-0.28985 -0.417903 -0.731459 
-0.285899 -0.430727 -0.738131 
-0.28292 -0.443099 -0.744219 
-0.281171 -0.454822 -0.749595 
-0.280264 -0.467517 -0.755036 
-0.27994 -0.481119 -0.760736 
-0.280264 -0.494397 -0.766177 
-0.281754 -0.507028 -0.770905 
-0.283697 -0.519464 -0.775439 
-0.286741 -0.531382 -0.779325 
-0.290174 -0.543235 -0.783017 
-0.294773 -0.55457 -0.786061 
-0.300019 -0.565645 -0.788782 
-0.306173 -0.576462 -0.790984 
-0.312844 -0.587149 -0.792992 
-0.319645 -0.597772 -0.794935 
-0.326835 -0.60833 -0.796748 
-0.334024 -0.618887 -0.798497 
-0.34076 -0.629574 -0.80057 
-0.34659 -0.640585 -0.802967 
-0.354168 -0.651078 -0.804651 
-0.363301 -0.657491 -0.804068 
-0.378587 -0.65924 -0.799404 
-0.402422 -0.659499 -0.791113 
-0.417903 -0.660082 -0.785867 
-0.409871 0.0351059 -0.519658 
-0.418032 0.0218278 -0.522443 
-0.428914 0.0103634 -0.523544 
-0.441998 0.000194305 -0.523415 
-0.456182 -0.00757822 -0.521925 
-0.471468 -0.0108815 -0.518104 
-0.315824 -0.371073 -0.71844 
-0.307857 -0.383574 -0.726278 
-0.301509 -0.395103 -0.733079 
-0.295939 -0.407539 -0.740139 
-0.291016 -0.421012 -0.747393 
-0.287195 -0.433707 -0.75387 
-0.284474 -0.447309 -0.760283 
-0.28292 -0.461623 -0.76663 
-0.282402 -0.475355 -0.772459 
-0.282855 -0.488568 -0.777706 
-0.284345 -0.502623 -0.783017 
-0.287065 -0.517391 -0.788263 
-0.290692 -0.531705 -0.792992 
-0.295356 -0.545631 -0.797072 
-0.301509 -0.559039 -0.80044 
-0.30831 -0.572187 -0.803355 
-0.315629 -0.585206 -0.80614 
-0.321653 -0.598614 -0.809508 
-0.32528 -0.612734 -0.813978 
-0.324891 -0.626724 -0.819807 
-0.325798 -0.640132 -0.824989 
-0.330397 -0.653734 -0.82894 
-0.33817 -0.665263 -0.831012 
-0.34931 -0.67472 -0.831012 
-0.363754 -0.681067 -0.828551 
-0.415895 0.0333571 -0.536434 
-0.428137 0.0191722 -0.538247 
-0.442192 0.00783729 -0.538312 
-0.456765 0.00038861 -0.536628 
-0.467517 -0.00207267 -0.534102 
-0.314982 -0.376384 -0.737677 
-0.307015 -0.390181 -0.745968 
-0.300019 -0.404754 -0.754259 
-0.29432 -0.419911 -0.76242 
-0.290304 -0.435456 -0.770063 
-0.287778 -0.450288 -0.776864 
-0.286741 -0.465704 -0.78347 
-0.287065 -0.481767 -0.789948 
-0.288749 -0.497053 -0.795647 
-0.291211 -0.51195 -0.800959 
-0.295162 -0.5262 -0.805557 
-0.299825 -0.54019 -0.809638 
-0.305978 -0.553598 -0.813006 
-0.311937 -0.56707 -0.816439 
-0.31673 -0.580867 -0.82039 
-0.317443 -0.595958 -0.826219 
-0.314722 -0.611892 -0.833603 
-0.314658 -0.626854 -0.839692 
-0.317313 -0.64214 -0.845003 
-0.323013 -0.656519 -0.848954 
-0.331887 -0.668891 -0.850897 
-0.343416 -0.679448 -0.851286 
-0.35637 -0.687285 -0.850055 
-0.370814 -0.692467 -0.847205 
-0.420299 0.0364013 -0.55308 
-0.433513 0.0228642 -0.554311 
-0.448669 0.0121769 -0.553857 
-0.462659 0.00628277 -0.55172 
-0.317054 -0.381566 -0.757044 
-0.309023 -0.396723 -0.765788 
-0.302351 -0.412397 -0.774467 
-0.297299 -0.42846 -0.782628 
-0.294125 -0.444977 -0.790336 
-0.292765 -0.461947 -0.797591 
-0.293478 -0.477816 -0.803808 
-0.295226 -0.493167 -0.809444 
-0.298206 -0.50923 -0.815079 
-0.303128 -0.525811 -0.82026 
-0.309476 -0.54181 -0.8246 
-0.315824 -0.557743 -0.82894 
-0.317572 -0.573871 -0.834834 
-0.313492 -0.590453 -0.842866 
-0.310253 -0.606516 -0.850379 
-0.310188 -0.622709 -0.856921 
-0.313427 -0.638966 -0.862426 
-0.320293 -0.654252 -0.866248 
-0.330527 -0.668567 -0.868644 
-0.344388 -0.681003 -0.869033 
-0.360904 -0.690394 -0.867349 
-0.377809 -0.696353 -0.864046 
-0.426064 0.0372433 -0.571022 
-0.440637 0.024613 -0.571475 
-0.457543 0.0151564 -0.569985 
-0.473606 0.012436 -0.565969 
-0.319969 -0.387331 -0.776929 
-0.312196 -0.403653 -0.785996 
-0.306173 -0.420299 -0.794741 
-0.301898 -0.437334 -0.802967 
-0.300149 -0.454498 -0.810415 
-0.300602 -0.471922 -0.817281 
-0.30274 -0.489863 -0.823823 
-0.306497 -0.507028 -0.829587 
-0.311808 -0.52348 -0.83451 
-0.318479 -0.539413 -0.83872 
-0.321847 -0.555153 -0.843967 
-0.318479 -0.570439 -0.851286 
-0.312974 -0.586178 -0.859317 
-0.30967 -0.602241 -0.866831 
-0.309346 -0.618499 -0.873437 
-0.312909 -0.634691 -0.878749 
-0.319839 -0.649913 -0.88257 
-0.330073 -0.664227 -0.884967 
-0.342833 -0.676793 -0.885809 
-0.358702 -0.686379 -0.884513 
-0.376125 -0.693309 -0.881534 
-0.430209 0.0413239 -0.588445 
-0.445884 0.029406 -0.58838 
-0.465121 0.0214392 -0.58566 
-0.324762 -0.391994 -0.796036 
-0.318091 -0.407734 -0.804456 
-0.312585 -0.423991 -0.812812 
-0.309541 -0.440573 -0.820325 
-0.308764 -0.457283 -0.827256 
-0.310253 -0.474318 -0.833539 
-0.313233 -0.491936 -0.839692 
-0.317896 -0.508776 -0.844938 
-0.324179 -0.524969 -0.849407 
-0.329231 -0.541486 -0.854395 
-0.325798 -0.558197 -0.862297 
-0.319321 -0.573159 -0.870393 
-0.314528 -0.588639 -0.877971 
-0.312326 -0.605609 -0.885485 
-0.314075 -0.62245 -0.891638 
-0.319645 -0.637995 -0.896043 
-0.328389 -0.652762 -0.899087 
-0.339918 -0.665587 -0.900512 
-0.353326 -0.675627 -0.900188 
-0.369843 -0.683917 -0.898115 
-0.383833 -0.689293 -0.895654 
-0.43714 0.0432023 -0.606451 
-0.454628 0.0324503 -0.605415 
-0.472829 0.0275924 -0.601788 
-0.334478 -0.39193 -0.812035 
-0.327482 -0.407798 -0.820584 
-0.322301 -0.425351 -0.829199 
-0.319839 -0.442969 -0.836971 
-0.320098 -0.460652 -0.843902 
-0.32256 -0.478723 -0.850249 
-0.32664 -0.495887 -0.855755 
-0.332729 -0.512339 -0.860354 
-0.338752 -0.528661 -0.864952 
-0.338817 -0.544401 -0.871235 
-0.331498 -0.559751 -0.879785 
-0.324891 -0.576009 -0.888335 
-0.320163 -0.59272 -0.896302 
-0.319775 -0.609042 -0.902908 
-0.323402 -0.6253 -0.90822 
-0.330786 -0.640456 -0.911911 
-0.341991 -0.654641 -0.913919 
-0.357018 -0.666688 -0.913919 
-0.372693 -0.675108 -0.912235 
-0.442386 0.0475419 -0.624717 
-0.459227 0.0382797 -0.623356 
-0.474642 0.0353002 -0.619924 
-0.340307 -0.403524 -0.834575 
-0.334672 -0.421336 -0.843384 
-0.33247 -0.440314 -0.85161 
-0.333117 -0.459291 -0.858864 
-0.336421 -0.477039 -0.864758 
-0.341732 -0.493944 -0.869746 
-0.349116 -0.511367 -0.874279 
-0.354427 -0.528078 -0.879137 
-0.348662 -0.547121 -0.888594 
-0.340631 -0.562731 -0.897403 
-0.334219 -0.578859 -0.905758 
-0.330721 -0.596412 -0.91366 
-0.332923 -0.614548 -0.920073 
-0.341019 -0.632101 -0.924477 
-0.35352 -0.647192 -0.92655 
-0.365179 -0.656519 -0.92655 
-0.450806 0.0500032 -0.64363 
-0.467258 0.0441738 -0.641104 
-0.348468 -0.419781 -0.858864 
-0.346784 -0.438629 -0.866831 
-0.348403 -0.457283 -0.873632 
-0.353456 -0.475873 -0.879267 
-0.361422 -0.494592 -0.88406 
-0.369972 -0.511756 -0.888076 
-0.367187 -0.540838 -0.900317 
-0.35488 -0.583717 -0.920979 
-0.353196 -0.616555 -0.934387 
-0.457283 0.0549258 -0.662025 
-0.471598 0.0514282 -0.659304 
-0.363236 -0.423473 -0.876158 
-0.362912 -0.441803 -0.883477 
-0.367252 -0.460846 -0.889565 
-0.375154 -0.479824 -0.894553 
-0.384222 -0.498413 -0.898893 
-0.393808 -0.515448 -0.90239 
-0.464797 0.0589416 -0.679707 
-0.479176 0.0573224 -0.67621 
-0.376644 -0.417838 -0.88963 
-0.374053 -0.435844 -0.897403 
-0.380206 -0.452879 -0.902261 
-0.387007 -0.469655 -0.906795 
-0.392966 -0.486754 -0.911523 
-0.400933 -0.503077 -0.91528 
-0.412397 -0.516873 -0.917093 
-0.468489 0.0644472 -0.696807 
-0.375283 -0.423732 -0.911069 
-0.382084 -0.439212 -0.91515 
-0.390505 -0.45547 -0.918972 
-0.395881 -0.472829 -0.924088 
-0.403847 -0.489151 -0.928039 
-0.416543 -0.503983 -0.929853 
-0.43131 -0.516743 -0.930371 
-0.474642 0.069305 -0.712935 
-0.37632 -0.414923 -0.925449 
-0.385193 -0.431051 -0.92914 
-0.393614 -0.447244 -0.932962 
-0.400738 -0.46402 -0.937367 
-0.411749 -0.47937 -0.940022 
-0.425092 -0.491224 -0.94067 
-0.480407 0.0748105 -0.727638 
-0.378198 -0.398018 -0.935164 
-0.38338 -0.412915 -0.939374 
-0.392318 -0.426193 -0.941965 
-0.399054 -0.440378 -0.945528 
-0.407798 -0.453851 -0.948119 
-0.41855 -0.465121 -0.949414 
-0.382732 -0.375996 -0.940346 
-0.381631 -0.390828 -0.94624 
-0.388173 -0.405208 -0.949802 
-0.396593 -0.418745 -0.952652 
-0.405208 -0.432282 -0.955373 
-0.415571 -0.443746 -0.956798 
-0.422825 -0.449381 -0.956927 
-0.38759 -0.35786 -0.944556 
-0.383833 -0.369713 -0.949997 
-0.384546 -0.382408 -0.954596 
-0.389274 -0.394715 -0.957899 
-0.396399 -0.405985 -0.960231 
-0.404171 -0.416996 -0.962239 
-0.412656 -0.426388 -0.963469 
-0.418809 -0.431764 -0.963793 
-0.403783 -0.322365 -0.937755 
-0.397759 -0.33111 -0.942613 
-0.391735 -0.341343 -0.948119 
-0.38746 -0.35216 -0.9533 
-0.385971 -0.363042 -0.957705 
-0.38746 -0.374053 -0.961397 
-0.391152 -0.383963 -0.964117 
-0.395945 -0.39329 -0.966319 
-0.402358 -0.402099 -0.967874 
-0.409936 -0.410389 -0.96891 
-0.417644 -0.417514 -0.969493 
-0.417449 -0.273463 -0.926032 
-0.412203 -0.283827 -0.931213 
-0.406503 -0.295809 -0.937172 
-0.400997 -0.307533 -0.943002 
-0.396075 -0.318933 -0.948572 
-0.391994 -0.329749 -0.953689 
-0.389663 -0.339724 -0.958028 
-0.388756 -0.350476 -0.962239 
-0.389857 -0.361681 -0.966125 
-0.392836 -0.37198 -0.969104 
-0.397759 -0.381437 -0.971306 
-0.404042 -0.390181 -0.972861 
-0.411879 -0.398407 -0.973832 
-0.429432 -0.174752 -0.895719 
-0.426841 -0.184338 -0.899929 
-0.424574 -0.195349 -0.904528 
-0.422113 -0.206361 -0.909191 
-0.419522 -0.217372 -0.913919 
-0.416802 -0.228383 -0.918648 
-0.414211 -0.239199 -0.923311 
-0.41149 -0.250081 -0.927975 
-0.408252 -0.261092 -0.932832 
-0.404884 -0.272103 -0.93769 
-0.401775 -0.28292 -0.942483 
-0.39899 -0.293413 -0.947082 
-0.396399 -0.303776 -0.951681 
-0.393808 -0.31401 -0.956085 
-0.392189 -0.32379 -0.960101 
-0.391606 -0.332923 -0.963664 
-0.3918 -0.341732 -0.966837 
-0.392642 -0.350217 -0.969687 
-0.395168 -0.359285 -0.972343 
-0.399702 -0.369001 -0.974739 
-0.405726 -0.377939 -0.976423 
-0.410454 -0.383121 -0.977136 
-0.426064 -0.142108 -0.890602 
-0.424185 -0.149815 -0.893905 
-0.421854 -0.157782 -0.897468 
-0.420299 -0.165231 -0.900576 
-0.418615 -0.172744 -0.903815 
-0.416931 -0.180193 -0.906924 
-0.415636 -0.187383 -0.909903 
-0.41434 -0.194572 -0.912883 
-0.413628 -0.201438 -0.915539 
-0.412786 -0.208304 -0.918324 
-0.411814 -0.215234 -0.921044 
-0.410648 -0.222229 -0.923894 
-0.409742 -0.22903 -0.926615 
-0.408446 -0.236026 -0.929529 
-0.406827 -0.24315 -0.932573 
-0.405531 -0.250081 -0.935423 
-0.404042 -0.257076 -0.938338 
-0.402552 -0.264136 -0.941253 
-0.400933 -0.271067 -0.944232 
-0.399832 -0.277803 -0.946953 
-0.39873 -0.284474 -0.949673 
-0.397435 -0.291146 -0.952458 
-0.396269 -0.297882 -0.955243 
-0.395103 -0.304424 -0.957964 
-0.394326 -0.310836 -0.960554 
-0.393549 -0.317184 -0.963081 
-0.39329 -0.323272 -0.965283 
-0.39329 -0.329231 -0.967485 
-0.393743 -0.334931 -0.969493 
-0.394585 -0.340501 -0.971306 
-0.395298 -0.346072 -0.973185 
-0.396528 -0.351383 -0.974804 
-0.398407 -0.35637 -0.976099 
-0.400868 -0.361099 -0.977201 
-0.403653 -0.365762 -0.978107 
-0.406697 -0.370231 -0.979014 
-0.410713 -0.374636 -0.979532 
-0.428266 -0.164518 -0.897079 
-0.426193 -0.172226 -0.900447 
-0.42438 -0.17974 -0.903686 
-0.422566 -0.187253 -0.906924 
-0.4214 -0.194378 -0.909839 
-0.419652 -0.201762 -0.913013 
-0.418356 -0.208887 -0.915927 
-0.417061 -0.215947 -0.918907 
-0.415571 -0.223136 -0.921886 
-0.414146 -0.230196 -0.924866 
-0.412721 -0.237256 -0.927845 
-0.411167 -0.244381 -0.930825 
-0.409482 -0.251506 -0.933869 
-0.407604 -0.258631 -0.936913 
-0.405985 -0.265691 -0.939957 
-0.403977 -0.27288 -0.943131 
-0.402034 -0.280005 -0.94624 
-0.400674 -0.286741 -0.94909 
-0.39899 -0.293672 -0.952134 
-0.397435 -0.300408 -0.955049 
-0.396334 -0.307015 -0.957769 
-0.394779 -0.313751 -0.960619 
-0.393937 -0.320098 -0.96321 
-0.393484 -0.327741 -0.966125 
-0.393614 -0.33655 -0.969428 
-0.39452 -0.344971 -0.972213 
-0.395881 -0.353132 -0.974869 
-0.398212 -0.360839 -0.977071 
-0.40171 -0.368029 -0.97882 
-0.406503 -0.374636 -0.979986 
-0.412332 -0.380789 -0.980698 
-0.434614 -0.197357 -0.902196 
-0.4328 -0.204741 -0.90537 
-0.429821 -0.212773 -0.909126 
-0.42723 -0.220545 -0.912689 
-0.423991 -0.228577 -0.916445 
-0.421012 -0.236479 -0.920137 
-0.41868 -0.243928 -0.923505 
-0.416154 -0.251506 -0.926938 
-0.413369 -0.259149 -0.930436 
-0.410648 -0.266727 -0.933998 
-0.408122 -0.274176 -0.937367 
-0.405402 -0.281624 -0.940929 
-0.4032 -0.288749 -0.944167 
-0.400738 -0.296004 -0.947535 
-0.398536 -0.303128 -0.950774 
-0.396528 -0.310059 -0.953948 
-0.394585 -0.316989 -0.956992 
-0.392901 -0.325215 -0.96049 
-0.391994 -0.334478 -0.964182 
-0.39167 -0.343481 -0.967614 
-0.392512 -0.351836 -0.970529 
-0.394002 -0.359933 -0.97312 
-0.396917 -0.367317 -0.975128 
-0.400674 -0.374377 -0.976682 
-0.405272 -0.380918 -0.977913 
-0.410972 -0.387137 -0.978755 
-0.415312 -0.391088 -0.979079 
-0.416219 -0.276313 -0.928817 
-0.411749 -0.284669 -0.933156 
-0.407798 -0.2927 -0.937237 
-0.403912 -0.300538 -0.941253 
-0.40035 -0.308245 -0.945139 
-0.396075 -0.317702 -0.949802 
-0.392189 -0.328389 -0.954919 
-0.390181 -0.33817 -0.959065 
-0.389015 -0.347497 -0.962886 
-0.389468 -0.357407 -0.966449 
-0.391994 -0.367899 -0.969752 
-0.39601 -0.37755 -0.972278 
-0.401904 -0.386554 -0.974092 
-0.409418 -0.394779 -0.975257 
-0.414664 -0.399832 -0.975711 
-0.486366 0.0843967 -0.762744 
-0.402487 -0.322236 -0.939892 
-0.394002 -0.334931 -0.946953 
-0.388108 -0.347885 -0.95343 
-0.385906 -0.360451 -0.958806 
-0.38746 -0.372693 -0.963016 
-0.392189 -0.384869 -0.966449 
-0.399184 -0.39614 -0.968845 
-0.408058 -0.406633 -0.970529 
-0.415377 -0.413628 -0.971177 
-0.47244 0.0813524 -0.751474 
-0.484811 0.0805104 -0.748559 
-0.385193 -0.36492 -0.947276 
-0.38338 -0.382732 -0.95466 
-0.390569 -0.399443 -0.959259 
-0.400738 -0.414923 -0.962562 
-0.412332 -0.428525 -0.9647 
-0.4214 -0.436233 -0.965153 
-0.460522 0.0774662 -0.735734 
-0.477492 0.0742924 -0.732496 
-0.379947 -0.390893 -0.941965 
-0.385323 -0.409612 -0.947989 
-0.39601 -0.427489 -0.952134 
-0.407669 -0.445042 -0.955891 
-0.418227 -0.456247 -0.957316 
-0.446661 0.0768184 -0.716756 
-0.47231 0.0685925 -0.713064 
-0.377226 -0.41434 -0.933027 
-0.389403 -0.435585 -0.938144 
-0.400155 -0.458773 -0.944362 
-0.416348 -0.478723 -0.947665 
-0.428072 -0.488244 -0.948054 
-0.436103 0.0772071 -0.69577 
-0.45981 0.0640585 -0.694605 
-0.479565 0.06082 -0.690524 
-0.375802 -0.426517 -0.918907 
-0.387396 -0.449187 -0.924801 
-0.39601 -0.472829 -0.931926 
-0.409353 -0.493426 -0.936589 
-0.427683 -0.510007 -0.938014 
-0.439407 -0.518233 -0.938014 
-0.424574 0.0828421 -0.674202 
-0.445042 0.0639938 -0.676274 
-0.468683 0.0542781 -0.673748 
-0.37632 -0.420817 -0.898245 
-0.377291 -0.443293 -0.907248 
-0.387136 -0.466287 -0.914049 
-0.395881 -0.489604 -0.921238 
-0.409482 -0.509942 -0.925837 
-0.422307 -0.521536 -0.927003 
-0.418291 0.0889954 -0.652698 
-0.433383 0.0663903 -0.658074 
-0.456765 0.0511691 -0.657879 
-0.477557 0.0466999 -0.653864 
-0.367511 -0.426129 -0.886521 
-0.369454 -0.449252 -0.895848 
-0.378522 -0.472181 -0.902973 
-0.38908 -0.494527 -0.90945 
-0.401969 -0.514865 -0.914308 
-0.414081 0.100266 -0.629639 
-0.421206 0.0757821 -0.638254 
-0.439666 0.0555735 -0.641687 
-0.46389 0.0426841 -0.640326 
-0.356824 -0.424898 -0.874085 
-0.357342 -0.44692 -0.883606 
-0.363689 -0.469201 -0.891444 
-0.374571 -0.491159 -0.897726 
-0.387072 -0.512533 -0.903297 
-0.413757 0.0919749 -0.614289 
-0.42153 0.0681391 -0.622579 
-0.440508 0.0483192 -0.625818 
-0.463113 0.036207 -0.624522 
-0.4795 0.0341991 -0.620701 
-0.349116 -0.410519 -0.85569 
-0.345618 -0.432541 -0.866636 
-0.347561 -0.456247 -0.876482 
-0.354686 -0.479176 -0.884384 
-0.365568 -0.500745 -0.890666 
-0.373858 -0.515577 -0.894812 
-0.413563 0.0870523 -0.597254 
-0.420494 0.0628279 -0.606257 
-0.438953 0.0428136 -0.609819 
-0.462854 0.0297299 -0.608654 
-0.481896 0.0275924 -0.60399 
-0.341797 -0.405208 -0.841505 
-0.336809 -0.426323 -0.852646 
-0.336097 -0.448151 -0.862556 
-0.339918 -0.470626 -0.871494 
-0.34808 -0.492648 -0.879008 
-0.358702 -0.513829 -0.88542 
-0.3622 -0.532353 -0.892674 
-0.344711 -0.579183 -0.918907 
-0.341214 -0.596476 -0.927716 
-0.412851 0.0846557 -0.580543 
-0.418032 0.0595893 -0.590647 
-0.435326 0.0389274 -0.595052 
-0.457478 0.0248073 -0.594922 
-0.47678 0.0209858 -0.590841 
-0.337587 -0.396399 -0.82609 
-0.330073 -0.418356 -0.838461 
-0.327158 -0.440767 -0.849537 
-0.328713 -0.462465 -0.858994 
-0.33383 -0.483969 -0.867349 
-0.342574 -0.505408 -0.874603 
-0.351642 -0.526653 -0.881663 
-0.349051 -0.546344 -0.891444 
-0.338947 -0.567653 -0.904333 
-0.333247 -0.586178 -0.914632 
