ply
format ascii 1.0
comment VCGLIB generated
element vertex 1554
property float x
property float y
property float z
element face 0
property list uchar int vertex_indices
end_header
-0.225242 -0.557291 -0.476116 
-0.224527 -0.555146 -0.482338 
-0.22724 -0.554775 -0.483591 
-0.230581 -0.554729 -0.483923 
-0.23248 -0.553937 -0.486359 
-0.23523 -0.553585 -0.487562 
-0.23775 -0.553114 -0.489088 
-0.240406 -0.552714 -0.490419 
-0.242358 -0.551948 -0.492776 
-0.245282 -0.551687 -0.493725 
-0.247357 -0.550983 -0.495907 
-0.248233 -0.549655 -0.499839 
-0.248136 -0.547817 -0.50521 
-0.249828 -0.546911 -0.507959 
-0.217725 -0.528336 -0.560277 
-0.221383 -0.559916 -0.477417 
-0.22127 -0.558086 -0.482768 
-0.225777 -0.558641 -0.481409 
-0.22782 -0.557924 -0.483629 
-0.23042 -0.557495 -0.485048 
-0.232732 -0.556917 -0.486878 
-0.234849 -0.556237 -0.489 
-0.237661 -0.555917 -0.490105 
-0.240431 -0.555576 -0.49127 
-0.242212 -0.554721 -0.493882 
-0.244493 -0.554126 -0.49576 
-0.247442 -0.553878 -0.49667 
-0.248431 -0.552609 -0.500436 
-0.247927 -0.55056 -0.506404 
-0.220774 -0.56245 -0.479188 
-0.223403 -0.562036 -0.480558 
-0.22468 -0.560924 -0.483894 
-0.22736 -0.560535 -0.485195 
-0.229927 -0.560088 -0.486652 
-0.23308 -0.559945 -0.487259 
-0.234255 -0.558778 -0.490751 
-0.237536 -0.558702 -0.491172 
-0.240519 -0.558471 -0.492033 
-0.241913 -0.557415 -0.495202 
-0.244605 -0.557034 -0.496484 
-0.246867 -0.556428 -0.498392 
-0.220991 -0.565409 -0.479756 
-0.221026 -0.563658 -0.484892 
-0.225331 -0.564108 -0.483835 
-0.226652 -0.563018 -0.487102 
-0.229343 -0.562636 -0.488394 
-0.232078 -0.562276 -0.489607 
-0.234919 -0.56197 -0.490673 
-0.237621 -0.561594 -0.491935 
-0.240255 -0.561183 -0.493305 
-0.242604 -0.560623 -0.495085 
-0.242055 -0.558559 -0.501101 
-0.210697 -0.540491 -0.552187 
-0.21743 -0.568191 -0.480626 
-0.218074 -0.566755 -0.484882 
-0.2221 -0.56706 -0.484227 
-0.22539 -0.566986 -0.484637 
-0.226636 -0.565858 -0.488022 
-0.229136 -0.565378 -0.489578 
-0.232327 -0.565253 -0.490135 
-0.234834 -0.564775 -0.491681 
-0.236392 -0.563807 -0.494615 
-0.240406 -0.564109 -0.49397 
-0.239649 -0.561941 -0.500289 
-0.216956 -0.570796 -0.482201 
-0.218492 -0.56982 -0.485156 
-0.221321 -0.569508 -0.486242 
-0.224504 -0.569378 -0.486809 
-0.226628 -0.568704 -0.488912 
-0.229557 -0.568444 -0.489851 
-0.232847 -0.568369 -0.490262 
-0.233757 -0.567068 -0.494136 
-0.23867 -0.567833 -0.49218 
-0.23376 -0.563522 -0.504555 
-0.216017 -0.573163 -0.484451 
-0.216421 -0.571605 -0.489049 
-0.21965 -0.571498 -0.489558 
-0.223198 -0.571554 -0.489597 
-0.226939 -0.571712 -0.489353 
-0.230154 -0.571599 -0.489871 
-0.232325 -0.570949 -0.491906 
-0.239626 -0.572944 -0.486476 
-0.238165 -0.570421 -0.493804 
-0.212905 -0.574416 -0.489851 
-0.216067 -0.574273 -0.490458 
-0.217794 -0.573395 -0.493138 
-0.221451 -0.573507 -0.493021 
-0.227104 -0.574645 -0.489998 
-0.230385 -0.574567 -0.490419 
-0.233924 -0.574619 -0.490468 
-0.23156 -0.571635 -0.499116 
-0.2136 -0.577623 -0.489734 
-0.214259 -0.576197 -0.49397 
-0.216642 -0.575654 -0.495701 
-0.218556 -0.574872 -0.498118 
-0.227888 -0.577895 -0.489744 
-0.230558 -0.577501 -0.491055 
-0.230467 -0.575691 -0.496386 
-0.22744 -0.572365 -0.506013 
-0.21225 -0.581541 -0.487396 
-0.211582 -0.57944 -0.493549 
-0.213179 -0.578496 -0.496425 
-0.214656 -0.57749 -0.499477 
-0.219465 -0.578189 -0.497687 
-0.227255 -0.580419 -0.491553 
-0.230021 -0.580074 -0.492727 
-0.231317 -0.578975 -0.496043 
-0.229329 -0.576188 -0.504144 
-0.223574 -0.569689 -0.522985 
-0.209984 -0.583234 -0.491564 
-0.210953 -0.58197 -0.495349 
-0.211959 -0.580724 -0.499086 
-0.212887 -0.579436 -0.502931 
-0.218575 -0.580584 -0.499869 
-0.227604 -0.583444 -0.491935 
-0.230213 -0.58302 -0.493334 
-0.229916 -0.581105 -0.498969 
-0.232445 -0.580639 -0.500485 
-0.232527 -0.578915 -0.505582 
-0.233885 -0.577846 -0.50881 
-0.241564 -0.580026 -0.502804 
-0.214677 -0.564421 -0.547364 
-0.210105 -0.584388 -0.497472 
-0.210642 -0.582903 -0.501884 
-0.211938 -0.581806 -0.5052 
-0.220485 -0.584411 -0.49798 
-0.2266 -0.585778 -0.494283 
-0.228577 -0.58503 -0.496601 
-0.228847 -0.583406 -0.501414 
-0.227309 -0.580855 -0.508869 
-0.228738 -0.579823 -0.512 
-0.235722 -0.58164 -0.50702 
-0.245284 -0.584786 -0.498255 
-0.24886 -0.584859 -0.498235 
-0.249057 -0.583195 -0.503166 
-0.249847 -0.581835 -0.507225 
-0.253092 -0.581738 -0.507695 
-0.254402 -0.580644 -0.511002 
-0.253868 -0.578597 -0.517018 
-0.28122 -0.566061 -0.555581 
-0.281777 -0.564559 -0.560052 
-0.204681 -0.587989 -0.495838 
-0.205706 -0.586756 -0.499546 
-0.207544 -0.585935 -0.50207 
-0.209956 -0.585407 -0.503772 
-0.210948 -0.584154 -0.507529 
-0.225274 -0.589705 -0.491906 
-0.228605 -0.58965 -0.492248 
-0.228451 -0.587813 -0.497678 
-0.227093 -0.585359 -0.504858 
-0.227797 -0.583957 -0.509045 
-0.229205 -0.582914 -0.512205 
-0.235484 -0.584369 -0.508253 
-0.246207 -0.588105 -0.497795 
-0.248159 -0.587345 -0.500153 
-0.249599 -0.58632 -0.503253 
-0.251716 -0.585644 -0.505377 
-0.252893 -0.584483 -0.508869 
-0.253376 -0.582964 -0.513398 
-0.253548 -0.581282 -0.518378 
-0.248275 -0.576792 -0.531369 
-0.282877 -0.571572 -0.548714 
-0.283143 -0.569922 -0.553605 
-0.281831 -0.567447 -0.560854 
-0.201018 -0.590732 -0.496846 
-0.202429 -0.589696 -0.499986 
-0.203597 -0.588536 -0.503489 
-0.206849 -0.588434 -0.503968 
-0.205253 -0.585866 -0.511491 
-0.227286 -0.591823 -0.495056 
-0.227105 -0.589974 -0.500524 
-0.22817 -0.588759 -0.504173 
-0.22718 -0.586493 -0.510835 
-0.226143 -0.5842 -0.517566 
-0.232267 -0.585571 -0.513839 
-0.245621 -0.59065 -0.499536 
-0.248955 -0.590598 -0.499869 
-0.250176 -0.589463 -0.503302 
-0.251701 -0.588482 -0.506287 
-0.255083 -0.588456 -0.50655 
-0.254152 -0.586212 -0.513144 
-0.256961 -0.58589 -0.514249 
-0.255595 -0.583418 -0.521488 
-0.256567 -0.582147 -0.525304 
-0.281386 -0.573651 -0.551815 
-0.283117 -0.572765 -0.554534 
-0.283458 -0.571153 -0.559328 
-0.281989 -0.568597 -0.566812 
-0.197038 -0.593318 -0.498314 
-0.198336 -0.592225 -0.50162 
-0.200817 -0.591731 -0.503215 
-0.202399 -0.590781 -0.50612 
-0.202947 -0.589305 -0.510522 
-0.228895 -0.59549 -0.493598 
-0.227959 -0.593258 -0.500162 
-0.227319 -0.591176 -0.506306 
-0.227028 -0.589267 -0.51194 
-0.227851 -0.587927 -0.515961 
-0.249348 -0.597159 -0.489763 
-0.246533 -0.593962 -0.499086 
-0.248865 -0.593397 -0.500886 
-0.250128 -0.592284 -0.504252 
-0.253358 -0.592179 -0.504741 
-0.254928 -0.591223 -0.507656 
-0.255006 -0.589499 -0.512772 
-0.2573 -0.588912 -0.514631 
-0.259015 -0.588028 -0.517351 
-0.261452 -0.587514 -0.519004 
-0.282422 -0.577045 -0.55116 
-0.283321 -0.575727 -0.555121 
-0.283198 -0.573877 -0.56059 
-0.283416 -0.572201 -0.56557 
-0.281818 -0.569577 -0.573258 
-0.194831 -0.596802 -0.497208 
-0.194116 -0.594692 -0.503429 
-0.197075 -0.59444 -0.504339 
-0.199844 -0.594091 -0.505513 
-0.199861 -0.592349 -0.510688 
-0.227479 -0.597615 -0.496552 
-0.226713 -0.595471 -0.502872 
-0.248613 -0.599625 -0.49172 
-0.246077 -0.596573 -0.500642 
-0.249096 -0.596359 -0.501434 
-0.249766 -0.594944 -0.50567 
-0.253005 -0.594844 -0.50614 
-0.256043 -0.594641 -0.506912 
-0.255355 -0.592526 -0.513144 
-0.258574 -0.592414 -0.513643 
-0.259088 -0.590913 -0.518133 
-0.263226 -0.591274 -0.517282 
-0.262463 -0.589114 -0.523641 
-0.284132 -0.579004 -0.554799 
-0.283302 -0.576788 -0.561324 
-0.283484 -0.575096 -0.566362 
-0.283207 -0.573163 -0.572075 
-0.192251 -0.59835 -0.501825 
-0.194138 -0.597557 -0.50429 
-0.196067 -0.596783 -0.506687 
-0.19696 -0.595486 -0.51059 
-0.226444 -0.598183 -0.504144 
-0.246812 -0.599793 -0.500446 
-0.249008 -0.599159 -0.502451 
-0.250835 -0.598337 -0.504985 
-0.25429 -0.598347 -0.505142 
-0.255686 -0.597303 -0.508321 
-0.25657 -0.595995 -0.512244 
-0.259912 -0.595947 -0.512567 
-0.262403 -0.595462 -0.514142 
-0.262352 -0.593673 -0.519454 
-0.263716 -0.592609 -0.522682 
-0.26486 -0.591429 -0.526243 
-0.284163 -0.581876 -0.55564 
-0.284367 -0.580199 -0.560629 
-0.284594 -0.578531 -0.565589 
-0.284158 -0.576518 -0.571547 
-0.187299 -0.600453 -0.504692 
-0.191162 -0.600654 -0.504301 
-0.192264 -0.599465 -0.50789 
-0.193946 -0.598566 -0.510649 
-0.246698 -0.604331 -0.496288 
-0.246303 -0.602378 -0.502079 
-0.249275 -0.60214 -0.50294 
-0.251478 -0.60151 -0.504937 
-0.253771 -0.600925 -0.506785 
-0.255732 -0.600171 -0.509133 
-0.258339 -0.599747 -0.510532 
-0.26117 -0.599437 -0.511598 
-0.263263 -0.59875 -0.51376 
-0.264411 -0.597576 -0.517302 
-0.266556 -0.596914 -0.519386 
-0.26757 -0.595672 -0.523132 
-0.266958 -0.593591 -0.529285 
-0.284907 -0.585117 -0.555415 
-0.284671 -0.583212 -0.56106 
-0.285619 -0.581922 -0.564953 
-0.28652 -0.580604 -0.568915 
-0.28527 -0.578169 -0.576086 
-0.18382 -0.603299 -0.505426 
-0.186832 -0.603071 -0.506257 
-0.18902 -0.60243 -0.508282 
-0.190297 -0.601327 -0.511628 
-0.193701 -0.601299 -0.511892 
-0.249871 -0.608788 -0.492542 
-0.246442 -0.605293 -0.502764 
-0.248819 -0.604751 -0.504496 
-0.25181 -0.604524 -0.505328 
-0.253384 -0.603572 -0.508243 
-0.255706 -0.603003 -0.510063 
-0.258173 -0.602507 -0.511667 
-0.261137 -0.602265 -0.512537 
-0.263428 -0.601679 -0.514396 
-0.264873 -0.60066 -0.517507 
-0.267039 -0.600008 -0.519552 
-0.267242 -0.59835 -0.524502 
-0.267446 -0.59669 -0.529452 
-0.285936 -0.586724 -0.560062 
-0.286755 -0.585369 -0.564141 
-0.286077 -0.583234 -0.570461 
-0.285984 -0.581401 -0.57591 
-0.183445 -0.605965 -0.506854 
-0.185078 -0.605045 -0.509691 
-0.18722 -0.604378 -0.511774 
-0.189379 -0.603721 -0.513848 
-0.247674 -0.610512 -0.496631 
-0.245679 -0.607748 -0.50476 
-0.249026 -0.607702 -0.505073 
-0.251487 -0.607203 -0.506687 
-0.253108 -0.606276 -0.509534 
-0.255628 -0.605808 -0.51106 
-0.257905 -0.605215 -0.512939 
-0.260433 -0.60475 -0.514455 
-0.263322 -0.604469 -0.515443 
-0.265969 -0.604066 -0.516773 
-0.267363 -0.603021 -0.519962 
-0.268109 -0.601642 -0.52411 
-0.269188 -0.600433 -0.527759 
-0.285053 -0.589124 -0.562263 
-0.286663 -0.588177 -0.565169 
-0.286474 -0.586298 -0.570754 
-0.286733 -0.584649 -0.575675 
-0.287157 -0.583083 -0.580361 
-0.179402 -0.608531 -0.508399 
-0.181149 -0.607668 -0.51107 
-0.183489 -0.607102 -0.51287 
-0.187144 -0.607196 -0.512782 
-0.186042 -0.6049 -0.519571 
-0.24665 -0.612834 -0.499018 
-0.246128 -0.61082 -0.504995 
-0.248837 -0.61045 -0.506238 
-0.251192 -0.609897 -0.508008 
-0.253349 -0.609244 -0.510063 
-0.255501 -0.608588 -0.512127 
-0.257825 -0.608018 -0.513946 
-0.260434 -0.607596 -0.515335 
-0.263116 -0.607209 -0.516626 
-0.265779 -0.606813 -0.517938 
-0.268263 -0.606326 -0.519522 
-0.268811 -0.604848 -0.523954 
-0.27073 -0.604071 -0.52637 
-0.285868 -0.590623 -0.567233 
-0.286751 -0.589299 -0.571224 
-0.287724 -0.588022 -0.575088 
-0.28674 -0.585729 -0.581867 
-0.177421 -0.612132 -0.506971 
-0.176723 -0.610045 -0.513163 
-0.180908 -0.610404 -0.512303 
-0.183321 -0.609873 -0.514005 
-0.183467 -0.608207 -0.518994 
-0.246255 -0.615475 -0.500485 
-0.246137 -0.613669 -0.505866 
-0.248162 -0.61295 -0.508115 
-0.25035 -0.612312 -0.510121 
-0.252578 -0.611696 -0.512078 
-0.255427 -0.611395 -0.513124 
-0.258428 -0.611171 -0.513936 
-0.260687 -0.610569 -0.515854 
-0.263024 -0.610007 -0.517644 
-0.267159 -0.610362 -0.516793 
-0.267804 -0.608937 -0.521078 
-0.270567 -0.608592 -0.522252 
-0.270708 -0.606906 -0.52729 
-0.272318 -0.60597 -0.530166 
-0.287257 -0.594197 -0.566049 
-0.286812 -0.592189 -0.572017 
-0.288273 -0.591165 -0.575146 
-0.288143 -0.589316 -0.580655 
-0.287251 -0.587071 -0.587316 
-0.174568 -0.613561 -0.51198 
-0.177063 -0.613072 -0.513564 
-0.179277 -0.612443 -0.515561 
-0.179807 -0.61097 -0.519982 
-0.245056 -0.61771 -0.503117 
-0.246183 -0.616536 -0.506678 
-0.247331 -0.615372 -0.510219 
-0.249565 -0.614759 -0.512156 
-0.252985 -0.614747 -0.512361 
-0.25567 -0.614363 -0.513653 
-0.25908 -0.614346 -0.513868 
-0.260975 -0.61356 -0.516313 
-0.263562 -0.613126 -0.517742 
-0.266527 -0.612884 -0.518612 
-0.269606 -0.612701 -0.519307 
-0.271418 -0.611872 -0.52188 
-0.272804 -0.610823 -0.525079 
-0.272183 -0.608748 -0.531242 
-0.272675 -0.60724 -0.535771 
-0.287643 -0.595475 -0.571664 
-0.288103 -0.593935 -0.576291 
-0.288301 -0.592258 -0.58131 
-0.288654 -0.590659 -0.586104 
-0.17139 -0.616566 -0.512274 
-0.174608 -0.616438 -0.512812 
-0.175912 -0.615355 -0.516118 
-0.176966 -0.614145 -0.519786 
-0.245001 -0.620524 -0.504085 
-0.245771 -0.619171 -0.508175 
-0.24746 -0.618282 -0.510913 
-0.249196 -0.617416 -0.513584 
-0.252393 -0.617291 -0.514122 
-0.255884 -0.617315 -0.51422 
-0.259009 -0.617154 -0.514856 
-0.26161 -0.616727 -0.516265 
-0.263298 -0.615836 -0.519014 
-0.266839 -0.615887 -0.519033 
-0.269116 -0.615295 -0.520912 
-0.272339 -0.615185 -0.521401 
-0.271974 -0.613244 -0.527192 
-0.272714 -0.611866 -0.531349 
-0.271635 -0.609556 -0.538197 
-0.287097 -0.598051 -0.573367 
-0.288883 -0.597196 -0.576007 
-0.288812 -0.595381 -0.581427 
-0.288847 -0.59362 -0.5867 
-0.167538 -0.619236 -0.513535 
-0.170947 -0.619202 -0.513799 
-0.172235 -0.618111 -0.517126 
-0.173777 -0.617147 -0.520089 
-0.175775 -0.616408 -0.522398 
-0.24422 -0.622972 -0.50611 
-0.245699 -0.621978 -0.509162 
-0.247368 -0.621079 -0.511931 
-0.248803 -0.620061 -0.515052 
-0.251994 -0.619933 -0.51559 
-0.255918 -0.620175 -0.515052 
-0.258897 -0.619941 -0.515903 
-0.2613 -0.619412 -0.517605 
-0.263877 -0.618974 -0.519043 
-0.266144 -0.618377 -0.520941 
-0.26945 -0.618309 -0.521303 
-0.271775 -0.617742 -0.523113 
-0.272335 -0.616274 -0.527535 
-0.272282 -0.614492 -0.532866 
-0.271821 -0.6125 -0.538804 
-0.288847 -0.600035 -0.576947 
-0.28888 -0.598276 -0.58222 
-0.290253 -0.597207 -0.585487 
-0.288563 -0.594555 -0.593343 
-0.168396 -0.622519 -0.513193 
-0.16945 -0.621314 -0.516851 
-0.170691 -0.6202 -0.520246 
-0.173618 -0.619926 -0.521214 
-0.24442 -0.625915 -0.506707 
-0.245206 -0.624572 -0.510767 
-0.246923 -0.623698 -0.513467 
-0.249042 -0.623027 -0.51558 
-0.252238 -0.6229 -0.516118 
-0.256156 -0.62314 -0.51559 
-0.2574 -0.622025 -0.518994 
-0.26063 -0.621917 -0.519473 
-0.26331 -0.621529 -0.520765 
-0.267866 -0.622096 -0.519288 
-0.270033 -0.621448 -0.521332 
-0.271878 -0.620637 -0.523846 
-0.271861 -0.618877 -0.529119 
-0.272563 -0.617482 -0.533335 
-0.272321 -0.615603 -0.538951 
-0.289404 -0.60318 -0.576996 
-0.288966 -0.601179 -0.582973 
-0.290489 -0.600188 -0.586015 
-0.290743 -0.598542 -0.590965 
-0.1653 -0.623839 -0.518544 
-0.167901 -0.623402 -0.519982 
-0.168663 -0.62205 -0.524071 
-0.106718 -0.571831 -0.671722 
-0.10641 -0.5699 -0.677503 
-0.107649 -0.568743 -0.681025 
-0.108432 -0.567357 -0.685222 
-0.110095 -0.566411 -0.688137 
-0.112186 -0.56568 -0.690436 
-0.243507 -0.630034 -0.503714 
-0.244088 -0.628591 -0.508077 
-0.245145 -0.627385 -0.511745 
-0.246545 -0.626352 -0.514905 
-0.249149 -0.625925 -0.516313 
-0.251845 -0.625545 -0.517576 
-0.254251 -0.62502 -0.519268 
-0.255694 -0.624005 -0.522379 
-0.257978 -0.623417 -0.524257 
-0.261707 -0.62356 -0.524003 
-0.267189 -0.624594 -0.521166 
-0.269931 -0.624239 -0.522359 
-0.271449 -0.623263 -0.525362 
-0.271545 -0.621562 -0.530469 
-0.271751 -0.619914 -0.535419 
-0.273271 -0.618935 -0.538432 
-0.291155 -0.605165 -0.580586 
-0.290445 -0.603025 -0.586964 
-0.290462 -0.601259 -0.592266 
-0.290158 -0.599323 -0.598058 
-0.16228 -0.628651 -0.513428 
-0.161826 -0.626702 -0.519258 
-0.164745 -0.626422 -0.520236 
-0.166934 -0.62578 -0.522271 
-0.166336 -0.623754 -0.528327 
-0.103527 -0.574924 -0.671947 
-0.103079 -0.572924 -0.677934 
-0.106847 -0.573037 -0.677768 
-0.107661 -0.571668 -0.681915 
-0.109914 -0.57102 -0.68397 
-0.110832 -0.569702 -0.687971 
-0.112691 -0.568854 -0.690602 
-0.244245 -0.633247 -0.503518 
-0.244422 -0.631601 -0.508468 
-0.24508 -0.630196 -0.512723 
-0.246379 -0.629112 -0.516039 
-0.249806 -0.6291 -0.516235 
-0.251723 -0.628328 -0.518642 
-0.254096 -0.627785 -0.520383 
-0.25635 -0.627182 -0.522301 
-0.257342 -0.625939 -0.526076 
-0.261139 -0.626117 -0.525725 
-0.266232 -0.626952 -0.523465 
-0.270141 -0.627189 -0.522936 
-0.271049 -0.625903 -0.52684 
-0.272389 -0.624836 -0.530107 
-0.273146 -0.62347 -0.534245 
-0.272433 -0.621357 -0.540555 
-0.273438 -0.620115 -0.544331 
-0.29011 -0.607485 -0.583032 
-0.291225 -0.606286 -0.586691 
-0.290922 -0.604356 -0.592462 
-0.290907 -0.602572 -0.597823 
-0.159038 -0.631628 -0.513809 
-0.159452 -0.63011 -0.518388 
-0.160909 -0.629105 -0.521479 
-0.164767 -0.629291 -0.521097 
-0.163776 -0.627073 -0.52772 
-0.0948547 -0.57705 -0.674823 
-0.101035 -0.578365 -0.671164 
-0.102535 -0.577343 -0.674305 
-0.105202 -0.576905 -0.675742 
-0.105765 -0.575412 -0.680262 
-0.109081 -0.575297 -0.680761 
-0.111893 -0.57493 -0.681994 
-0.112924 -0.57367 -0.685828 
-0.243337 -0.635631 -0.505738 
-0.243657 -0.634058 -0.510473 
-0.245279 -0.633139 -0.51332 
-0.246333 -0.631932 -0.516989 
-0.249802 -0.631942 -0.517126 
-0.252157 -0.631391 -0.518886 
-0.254219 -0.630692 -0.521088 
-0.255179 -0.629435 -0.524913 
-0.255763 -0.627987 -0.529285 
-0.25812 -0.627435 -0.531056 
-0.268329 -0.630857 -0.521254 
-0.272509 -0.631231 -0.520325 
-0.272275 -0.629368 -0.525911 
-0.272188 -0.627577 -0.531291 
-0.27339 -0.626439 -0.534764 
-0.273422 -0.624707 -0.539978 
-0.273968 -0.623233 -0.544429 
-0.291143 -0.609103 -0.587698 
-0.291553 -0.607541 -0.592404 
-0.292894 -0.606456 -0.595729 
-0.291458 -0.603941 -0.603223 
-0.156213 -0.63481 -0.513584 
-0.155598 -0.632786 -0.519649 
-0.158482 -0.632489 -0.520676 
-0.160218 -0.631623 -0.523367 
-0.159999 -0.62979 -0.528865 
-0.100713 -0.582888 -0.667222 
-0.101744 -0.581634 -0.671037 
-0.104746 -0.581363 -0.671996 
-0.105477 -0.579958 -0.676261 
-0.109852 -0.580373 -0.675214 
-0.11372 -0.580535 -0.674901 
-0.113806 -0.578805 -0.680105 
-0.115351 -0.577805 -0.683187 
-0.11001 -0.57335 -0.696345 
-0.243324 -0.636734 -0.511853 
-0.24431 -0.635495 -0.515619 
-0.24595 -0.634583 -0.518436 
-0.250438 -0.635106 -0.517077 
-0.250936 -0.633619 -0.521567 
-0.253581 -0.633214 -0.522917 
-0.253739 -0.631554 -0.527916 
-0.255696 -0.6308 -0.530273 
-0.253334 -0.627863 -0.539 
-0.270456 -0.63129 -0.529481 
-0.273983 -0.631332 -0.529521 
-0.274205 -0.629698 -0.534441 
-0.274517 -0.628109 -0.539235 
-0.275102 -0.626657 -0.543637 
-0.292018 -0.612411 -0.587267 
-0.291778 -0.610517 -0.592961 
-0.292918 -0.609329 -0.596581 
-0.29405 -0.608138 -0.60022 
-0.151957 -0.635571 -0.520598 
-0.15538 -0.635538 -0.520853 
-0.156851 -0.634542 -0.523925 
-0.157212 -0.632999 -0.528591 
-0.100182 -0.587302 -0.663583 
-0.101499 -0.586192 -0.666987 
-0.105124 -0.586232 -0.667036 
-0.106724 -0.585264 -0.67002 
-0.11019 -0.585225 -0.670303 
-0.114178 -0.585448 -0.669814 
-0.113443 -0.58331 -0.676212 
-0.239755 -0.641247 -0.507539 
-0.241848 -0.640567 -0.509681 
-0.242516 -0.639171 -0.513917 
-0.243964 -0.638164 -0.517018 
-0.246179 -0.637543 -0.518984 
-0.248487 -0.636968 -0.520823 
-0.250709 -0.636349 -0.52279 
-0.254304 -0.636422 -0.522731 
-0.253814 -0.634437 -0.528689 
-0.252889 -0.632231 -0.535292 
-0.275632 -0.633266 -0.533218 
-0.276044 -0.631729 -0.537865 
-0.275436 -0.629673 -0.544028 
-0.274864 -0.627634 -0.550142 
-0.292743 -0.613871 -0.592393 
-0.29347 -0.612474 -0.596639 
-0.2929 -0.610409 -0.602832 
-0.292173 -0.60826 -0.609269 
-0.147293 -0.637854 -0.523015 
-0.152189 -0.638543 -0.521156 
-0.154192 -0.637811 -0.523465 
-0.154326 -0.636157 -0.528454 
-0.102381 -0.593067 -0.655991 
-0.101679 -0.590957 -0.66232 
-0.105605 -0.591147 -0.661929 
-0.108419 -0.590784 -0.663152 
-0.110484 -0.590049 -0.665461 
-0.113543 -0.589808 -0.666321 
-0.111902 -0.587224 -0.67404 
-0.239548 -0.643985 -0.508722 
-0.240851 -0.642909 -0.512029 
-0.242377 -0.641944 -0.515003 
-0.243835 -0.640943 -0.518084 
-0.244888 -0.639739 -0.521763 
-0.247618 -0.639375 -0.522985 
-0.245592 -0.636622 -0.531193 
-0.265607 -0.644949 -0.507001 
-0.252084 -0.636412 -0.532123 
-0.278287 -0.639193 -0.524922 
-0.275372 -0.635977 -0.53448 
-0.276506 -0.634807 -0.538061 
-0.276858 -0.63324 -0.542805 
-0.277099 -0.631614 -0.547716 
-0.291739 -0.616216 -0.594781 
-0.293534 -0.615367 -0.597422 
-0.293494 -0.613575 -0.602822 
-0.293202 -0.611653 -0.608604 
-0.144566 -0.641091 -0.522653 
-0.149207 -0.641653 -0.521166 
-0.150108 -0.640381 -0.52505 
-0.151591 -0.639392 -0.528092 
-0.152051 -0.637899 -0.532621 
-0.102469 -0.596019 -0.656774 
-0.106462 -0.596242 -0.656284 
-0.107681 -0.595088 -0.659816 
-0.108637 -0.593802 -0.663739 
-0.11132 -0.593375 -0.665148 
-0.110518 -0.591213 -0.671634 
-0.231379 -0.649645 -0.50074 
-0.239937 -0.648745 -0.503831 
-0.238407 -0.646256 -0.511275 
-0.240409 -0.645529 -0.513555 
-0.241619 -0.644406 -0.516998 
-0.243377 -0.643557 -0.51964 
-0.244103 -0.64219 -0.523807 
-0.244896 -0.640855 -0.527867 
-0.149413 -0.591205 -0.673404 
-0.27203 -0.651011 -0.498431 
-0.158003 -0.590202 -0.676818 
-0.277378 -0.639834 -0.532396 
-0.276774 -0.637787 -0.53855 
-0.277698 -0.636512 -0.542443 
-0.279017 -0.635434 -0.54575 
-0.278986 -0.633671 -0.551062 
-0.293753 -0.620106 -0.592648 
-0.293461 -0.61819 -0.59842 
-0.293912 -0.616652 -0.603086 
-0.29486 -0.615366 -0.606999 
-0.294301 -0.613307 -0.613192 
-0.146065 -0.644686 -0.521391 
-0.146117 -0.642998 -0.526497 
-0.148259 -0.642333 -0.5286 
-0.151364 -0.642141 -0.529315 
-0.106329 -0.602592 -0.646786 
-0.106246 -0.600798 -0.652195 
-0.108385 -0.600103 -0.654396 
-0.107134 -0.597726 -0.661518 
-0.145371 -0.609699 -0.627044 
-0.217477 -0.643843 -0.527104 
-0.241584 -0.647232 -0.517938 
-0.243204 -0.646314 -0.520784 
-0.243179 -0.644572 -0.526038 
-0.242524 -0.642512 -0.53223 
-0.247003 -0.64129 -0.536124 
-0.160849 -0.596309 -0.66818 
-0.155519 -0.59186 -0.681377 
-0.278714 -0.641611 -0.536554 
-0.278289 -0.639655 -0.542443 
-0.278953 -0.638247 -0.546728 
-0.279339 -0.636698 -0.551424 
-0.29535 -0.622016 -0.596473 
-0.294924 -0.620031 -0.60245 
-0.295575 -0.618596 -0.606813 
-0.296123 -0.617106 -0.611333 
0.0150394 -0.617496 -0.60608 
-0.141808 -0.647173 -0.52323 
-0.143503 -0.64629 -0.525969 
-0.144497 -0.645065 -0.529726 
-0.147277 -0.644712 -0.530909 
-0.14661 -0.64267 -0.537053 
-0.108019 -0.606333 -0.64524 
-0.108864 -0.605 -0.64931 
-0.129525 -0.606473 -0.645758 
-0.12936 -0.604637 -0.651305 
-0.133285 -0.604831 -0.650884 
-0.12884 -0.600861 -0.662692 
-0.241104 -0.649836 -0.519522 
-0.241835 -0.648474 -0.52367 
-0.242172 -0.646914 -0.528405 
-0.23722 -0.642706 -0.540907 
-0.279588 -0.644894 -0.536143 
-0.279762 -0.643242 -0.541152 
-0.279825 -0.641533 -0.546317 
-0.279324 -0.639537 -0.552333 
-0.279494 -0.637877 -0.557352 
-0.295261 -0.623063 -0.602832 
-0.296096 -0.621724 -0.606911 
-0.296075 -0.619944 -0.612292 
0.0141453 -0.620835 -0.605737 
0.0144749 -0.618961 -0.611392 
0.0136591 -0.617635 -0.615442 
-0.138946 -0.650344 -0.523054 
-0.139177 -0.648748 -0.527896 
-0.142603 -0.648711 -0.52816 
-0.144046 -0.647705 -0.531262 
-0.144159 -0.646047 -0.53629 
-0.108156 -0.609304 -0.645944 
-0.126534 -0.611393 -0.640417 
-0.12918 -0.610954 -0.641855 
-0.129556 -0.609389 -0.64661 
-0.132277 -0.608986 -0.64795 
-0.133863 -0.608019 -0.650943 
-0.133667 -0.606167 -0.656549 
-0.14347 -0.609284 -0.647529 
-0.271798 -0.66969 -0.470247 
-0.240745 -0.6525 -0.520941 
-0.241732 -0.651267 -0.524707 
-0.240577 -0.648963 -0.531633 
-0.160173 -0.60354 -0.665637 
-0.159885 -0.60163 -0.671399 
-0.278415 -0.645407 -0.544028 
-0.280732 -0.644836 -0.545857 
-0.280488 -0.642971 -0.551483 
-0.280574 -0.641271 -0.556638 
-0.293944 -0.625252 -0.605688 
-0.296148 -0.624611 -0.607723 
-0.296489 -0.623018 -0.612556 
-0.296293 -0.621149 -0.61821 
0.014293 -0.62196 -0.612057 
0.0128187 -0.62095 -0.615178 
-0.135653 -0.653306 -0.523504 
-0.136816 -0.652165 -0.527006 
-0.139161 -0.6516 -0.528816 
-0.141151 -0.650863 -0.531134 
-0.141477 -0.649311 -0.53585 
-0.128445 -0.618727 -0.627964 
-0.127743 -0.616636 -0.634264 
-0.129049 -0.615536 -0.637658 
-0.128979 -0.613753 -0.643058 
-0.132073 -0.613535 -0.643851 
-0.133975 -0.612727 -0.646374 
-0.136216 -0.612087 -0.648409 
-0.137465 -0.610954 -0.651902 
-0.240552 -0.655247 -0.522105 
-0.240792 -0.653642 -0.526977 
-0.239619 -0.651331 -0.533922 
-0.160243 -0.606476 -0.666439 
-0.161951 -0.605567 -0.669266 
-0.161442 -0.603547 -0.675361 
-0.28005 -0.649075 -0.542482 
-0.281147 -0.647889 -0.546121 
-0.281501 -0.646329 -0.550866 
-0.282568 -0.645125 -0.554554 
-0.28384 -0.644025 -0.557939 
-0.296533 -0.629432 -0.602685 
-0.295792 -0.62729 -0.609142 
-0.296915 -0.626099 -0.612801 
-0.29842 -0.6251 -0.615892 
-0.295857 -0.622021 -0.625107 
0.0138704 -0.626787 -0.607176 
0.0135221 -0.62524 -0.611881 
0.0120322 -0.624239 -0.614982 
0.00919913 -0.62388 -0.616195 
-0.13207 -0.656127 -0.524365 
-0.133499 -0.655117 -0.527486 
-0.13611 -0.654683 -0.528914 
-0.138103 -0.653946 -0.531232 
-0.13853 -0.652446 -0.535801 
-0.128939 -0.623604 -0.622867 
-0.12784 -0.621322 -0.629744 
-0.130486 -0.620886 -0.631182 
-0.13053 -0.619164 -0.636406 
-0.133697 -0.618983 -0.637091 
-0.136023 -0.618387 -0.638988 
-0.138449 -0.61784 -0.64075 
-0.141834 -0.617769 -0.641112 
-0.14292 -0.616558 -0.644829 
-0.239456 -0.657543 -0.524599 
-0.240276 -0.656229 -0.52862 
-0.23721 -0.652979 -0.538344 
-0.162558 -0.612291 -0.658593 
-0.162365 -0.610436 -0.664218 
-0.162915 -0.60895 -0.668748 
-0.283036 -0.651684 -0.544204 
-0.282271 -0.649562 -0.550602 
-0.282685 -0.648031 -0.555268 
-0.284506 -0.647208 -0.557831 
-0.297111 -0.630824 -0.608046 
-0.297346 -0.62918 -0.613045 
-0.298201 -0.627852 -0.617105 
-0.297994 -0.625979 -0.622779 
0.0270721 -0.630241 -0.605884 
0.0223627 -0.630775 -0.604465 
0.0191912 -0.630577 -0.605199 
0.0159678 -0.630404 -0.605855 
0.0140152 -0.629627 -0.6083 
0.0116683 -0.629036 -0.610188 
0.00808097 -0.629039 -0.610335 
0.00592585 -0.628357 -0.612497 
0.00133285 -0.62884 -0.611215 
-0.129845 -0.657907 -0.528444 
-0.133277 -0.657871 -0.528698 
-0.134577 -0.656798 -0.532005 
-0.135475 -0.655529 -0.535899 
-0.126376 -0.630442 -0.611685 
-0.126366 -0.628704 -0.616968 
-0.128269 -0.627904 -0.619472 
-0.129046 -0.626549 -0.62362 
-0.13122 -0.625881 -0.625733 
-0.132635 -0.624839 -0.628962 
-0.13476 -0.624146 -0.631153 
-0.137906 -0.623956 -0.631857 
-0.140118 -0.623306 -0.633922 
-0.142396 -0.622688 -0.635897 
-0.144047 -0.621759 -0.638783 
-0.148927 -0.622428 -0.636954 
-0.238848 -0.660086 -0.52637 
-0.238998 -0.658439 -0.531379 
-0.235644 -0.655047 -0.541533 
-0.165275 -0.618296 -0.65018 
-0.165256 -0.616532 -0.655531 
-0.165792 -0.615043 -0.66007 
-0.169124 -0.614948 -0.660501 
-0.284164 -0.655093 -0.543412 
-0.28427 -0.653411 -0.548518 
-0.284584 -0.651833 -0.553322 
-0.284218 -0.649909 -0.559142 
-0.283872 -0.647995 -0.564943 
-0.298532 -0.632646 -0.612145 
-0.298583 -0.630909 -0.617418 
-0.298969 -0.629341 -0.622192 
-0.25112 -0.570664 -0.79831 
-0.253526 -0.570086 -0.800169 
-0.257337 -0.570235 -0.799875 
0.0246607 -0.634297 -0.603419 
0.0235093 -0.63314 -0.606989 
0.0195874 -0.633298 -0.606667 
0.01641 -0.633103 -0.607391 
0.0125174 -0.63325 -0.607107 
0.0105707 -0.632469 -0.609562 
0.00681118 -0.632554 -0.609455 
0.00255767 -0.632874 -0.608662 
-0.00100128 -0.632864 -0.608838 
-0.00621842 -0.633647 -0.606667 
-0.00849192 -0.633024 -0.608662 
-0.126346 -0.662474 -0.524012 
-0.128512 -0.661823 -0.526076 
-0.130943 -0.661301 -0.527769 
-0.132158 -0.660189 -0.531203 
-0.132611 -0.658706 -0.535722 
-0.136854 -0.659063 -0.534813 
-0.127271 -0.6355 -0.606031 
-0.125624 -0.632962 -0.613681 
-0.128032 -0.632411 -0.615452 
-0.128624 -0.630968 -0.619864 
-0.131344 -0.630571 -0.621184 
-0.132911 -0.629605 -0.624178 
-0.135663 -0.629222 -0.625459 
-0.137624 -0.62845 -0.627886 
-0.139979 -0.627872 -0.629734 
-0.142464 -0.627356 -0.631407 
-0.144154 -0.626448 -0.634234 
-0.146672 -0.62595 -0.635848 
-0.223026 -0.661963 -0.52954 
-0.237941 -0.662479 -0.528591 
-0.238633 -0.661102 -0.532797 
-0.168317 -0.624452 -0.641288 
-0.165725 -0.621414 -0.650415 
-0.167349 -0.62047 -0.65335 
-0.169961 -0.620016 -0.654837 
-0.17062 -0.61859 -0.6592 
-0.17119 -0.617116 -0.6637 
-0.284062 -0.65615 -0.549712 
-0.285897 -0.655337 -0.552255 
-0.285285 -0.653293 -0.558448 
-0.285339 -0.651581 -0.563642 
-0.297972 -0.635222 -0.613867 
-0.298865 -0.633914 -0.617878 
-0.29967 -0.632561 -0.622026 
-0.298558 -0.630229 -0.629059 
-0.250451 -0.575066 -0.79471 
-0.253036 -0.574581 -0.796285 
-0.255296 -0.573928 -0.798359 
-0.258381 -0.573701 -0.79918 
-0.263194 -0.574369 -0.797341 
-0.314409 -0.573616 -0.801714 
-0.319537 -0.572633 -0.804903 
-0.321582 -0.571869 -0.80731 
-0.323054 -0.570804 -0.810607 
-0.324882 -0.569925 -0.813346 
-0.325396 -0.568354 -0.81814 
0.0272864 -0.635961 -0.608017 
0.0234858 -0.636061 -0.60787 
0.0207828 -0.635639 -0.609259 
0.0159443 -0.636234 -0.607655 
0.011814 -0.636493 -0.607029 
0.00914827 -0.636056 -0.608466 
0.005154 -0.636251 -0.608036 
0.00190124 -0.636095 -0.608643 
-0.00374047 -0.637078 -0.605884 
-0.00749605 -0.637163 -0.605777 
-0.0134292 -0.638289 -0.602597 
-0.0172103 -0.638389 -0.602441 
-0.0189937 -0.637533 -0.605121 
-0.129241 -0.665037 -0.52593 
-0.12963 -0.663527 -0.530547 
-0.129842 -0.661928 -0.535419 
-0.130581 -0.660583 -0.539538 
-0.125598 -0.641019 -0.59885 
-0.127846 -0.640392 -0.600846 
-0.128028 -0.638756 -0.605835 
-0.129393 -0.637696 -0.609113 
-0.131027 -0.636768 -0.612008 
-0.132664 -0.63584 -0.614894 
-0.135655 -0.635576 -0.615823 
-0.136476 -0.634247 -0.619893 
-0.138882 -0.633695 -0.621673 
-0.140649 -0.632829 -0.624383 
-0.142795 -0.632149 -0.626536 
-0.145095 -0.631544 -0.628473 
-0.147797 -0.631137 -0.629812 
-0.151895 -0.631419 -0.629128 
-0.229721 -0.668117 -0.520647 
-0.238164 -0.665433 -0.529149 
-0.237938 -0.663603 -0.534705 
-0.166825 -0.626603 -0.644379 
-0.166736 -0.62481 -0.649828 
-0.169438 -0.624402 -0.651178 
-0.170554 -0.623205 -0.654866 
-0.173207 -0.622772 -0.656295 
-0.173111 -0.620971 -0.661763 
-0.28524 -0.659584 -0.548841 
-0.285886 -0.658175 -0.553155 
-0.285947 -0.656471 -0.55834 
-0.287231 -0.65538 -0.561715 
-0.288609 -0.654335 -0.564943 
-0.29935 -0.638783 -0.612683 
-0.298595 -0.63664 -0.619169 
-0.300296 -0.635744 -0.621967 
-0.30016 -0.633911 -0.627533 
-0.299599 -0.63186 -0.633745 
-0.253091 -0.579353 -0.79157 
-0.252951 -0.577462 -0.797312 
-0.257112 -0.577791 -0.79648 
-0.262183 -0.578592 -0.79425 
-0.265528 -0.578501 -0.794661 
-0.270524 -0.579265 -0.792538 
-0.313371 -0.577822 -0.798642 
-0.31652 -0.577637 -0.799337 
-0.318588 -0.576888 -0.801695 
-0.31968 -0.575626 -0.805579 
-0.322009 -0.575012 -0.807535 
-0.323749 -0.574088 -0.810421 
-0.325397 -0.573115 -0.813444 
-0.326833 -0.57203 -0.816799 
-0.316085 -0.564532 -0.839163 
0.0254287 -0.639752 -0.606324 
0.0246871 -0.638401 -0.610472 
0.0195893 -0.639116 -0.608496 
0.0162466 -0.638999 -0.608995 
0.0118229 -0.639397 -0.607958 
0.0068366 -0.640063 -0.606129 
0.0037942 -0.639805 -0.607038 
1.41809e-006 -0.639906 -0.606882 
-0.00614017 -0.641127 -0.603409 
-0.00991627 -0.641222 -0.603272 
-0.0149886 -0.641937 -0.601296 
-0.0211811 -0.643188 -0.597735 
-0.0241413 -0.642897 -0.598743 
-0.0289661 -0.643497 -0.597109 
-0.118251 -0.667678 -0.527055 
-0.118518 -0.666111 -0.531839 
-0.125877 -0.667968 -0.526478 
-0.12866 -0.667616 -0.527662 
-0.129228 -0.666193 -0.532015 
-0.129688 -0.664716 -0.536535 
-0.128523 -0.66245 -0.543392 
-0.12683 -0.647945 -0.587493 
-0.124143 -0.644914 -0.59661 
-0.127993 -0.645072 -0.596287 
-0.127325 -0.643023 -0.602499 
-0.130429 -0.642815 -0.603262 
-0.131544 -0.641634 -0.606901 
-0.134088 -0.641154 -0.608466 
-0.135726 -0.640227 -0.611353 
-0.137638 -0.639436 -0.613837 
-0.139823 -0.638777 -0.615931 
-0.141492 -0.637865 -0.618778 
-0.14372 -0.637227 -0.620812 
-0.145327 -0.636283 -0.623747 
-0.147962 -0.635844 -0.625186 
-0.14997 -0.635097 -0.627543 
-0.157477 -0.637059 -0.621869 
-0.230511 -0.671349 -0.520373 
-0.237477 -0.667937 -0.531037 
-0.237503 -0.666233 -0.536231 
-0.167953 -0.630052 -0.643625 
-0.167943 -0.628301 -0.648957 
-0.169404 -0.627278 -0.652127 
-0.172179 -0.626906 -0.653369 
-0.172775 -0.625451 -0.65783 
-0.287618 -0.661888 -0.551463 
-0.286361 -0.659524 -0.558604 
-0.287377 -0.6583 -0.562371 
-0.289091 -0.657424 -0.56511 
-0.300612 -0.640525 -0.617017 
-0.299874 -0.638391 -0.623483 
-0.300573 -0.636985 -0.627797 
-0.302146 -0.636023 -0.630791 
-0.254257 -0.582877 -0.790689 
-0.256074 -0.581997 -0.793438 
-0.258447 -0.581404 -0.795336 
-0.263628 -0.58226 -0.792939 
-0.268854 -0.583141 -0.790464 
-0.271016 -0.582441 -0.792685 
-0.317746 -0.581194 -0.79833 
-0.318908 -0.57997 -0.802096 
-0.321197 -0.579337 -0.804111 
-0.322386 -0.578126 -0.807848 
-0.324309 -0.577299 -0.81044 
-0.326546 -0.576637 -0.812544 
-0.324347 -0.573644 -0.821573 
-0.298725 -0.558337 -0.867151 
0.0253592 -0.642693 -0.607146 
0.0235748 -0.641838 -0.609827 
0.0205745 -0.641558 -0.610805 
0.0173697 -0.641375 -0.61148 
0.0128451 -0.641819 -0.610316 
0.00734726 -0.642727 -0.607762 
0.00374722 -0.642734 -0.60788 
-0.00207739 -0.6438 -0.604867 
-0.00767211 -0.644759 -0.602157 
-0.011728 -0.644987 -0.601629 
-0.0154337 -0.64505 -0.60158 
-0.0215098 -0.646244 -0.598185 
-0.0286042 -0.647926 -0.593333 
-0.0308562 -0.647298 -0.595338 
-0.0368706 -0.648469 -0.592012 
-0.0411564 -0.648815 -0.591122 
-0.114365 -0.670362 -0.528336 
-0.116387 -0.669642 -0.530616 
-0.120472 -0.669916 -0.529941 
-0.125918 -0.670848 -0.527319 
-0.127751 -0.670038 -0.529863 
-0.128843 -0.668868 -0.533462 
-0.12866 -0.667082 -0.538902 
-0.125758 -0.655444 -0.574266 
-0.126626 -0.654154 -0.578238 
-0.127877 -0.653048 -0.581652 
-0.12702 -0.650916 -0.588119 
-0.129191 -0.650255 -0.590222 
-0.130704 -0.649274 -0.593265 
-0.131541 -0.647962 -0.597304 
-0.133585 -0.647239 -0.599584 
-0.134942 -0.646179 -0.602871 
-0.137078 -0.645499 -0.605033 
-0.138938 -0.644684 -0.607586 
-0.139953 -0.643454 -0.611372 
-0.141974 -0.642717 -0.613701 
-0.143793 -0.64188 -0.616332 
-0.146218 -0.641339 -0.618073 
-0.148758 -0.640856 -0.619648 
-0.148867 -0.639176 -0.624765 
-0.153618 -0.639779 -0.623121 
-0.227497 -0.674415 -0.520452 
-0.237048 -0.670569 -0.532553 
-0.16837 -0.633148 -0.64391 
-0.169871 -0.632148 -0.647021 
-0.170937 -0.63093 -0.650777 
-0.171007 -0.629217 -0.656001 
-0.289086 -0.665466 -0.550162 
-0.288649 -0.663516 -0.55608 
-0.288754 -0.661836 -0.561206 
-0.288877 -0.660163 -0.566313 
-0.287205 -0.657587 -0.5741 
-0.301309 -0.64374 -0.61685 
-0.301618 -0.642139 -0.621742 
-0.301239 -0.640188 -0.62768 
-0.301198 -0.638406 -0.63311 
-0.259064 -0.588272 -0.784242 
-0.257339 -0.585571 -0.792401 
-0.260992 -0.585638 -0.792342 
-0.266308 -0.586564 -0.789731 
-0.271785 -0.587574 -0.786864 
-0.276595 -0.588242 -0.785015 
-0.318137 -0.586139 -0.793047 
-0.318178 -0.584335 -0.798545 
-0.320339 -0.583634 -0.800766 
-0.321627 -0.582478 -0.804336 
-0.323725 -0.581743 -0.806655 
-0.325695 -0.580942 -0.809179 
-0.327046 -0.579816 -0.812661 
-0.327114 -0.578015 -0.818149 
-0.311685 -0.56808 -0.84783 
0.0357113 -0.642411 -0.617398 
0.0269401 -0.644855 -0.610276 
0.0247752 -0.644179 -0.612429 
0.0193027 -0.64507 -0.609925 
0.0173198 -0.644307 -0.612331 
0.0102283 -0.645968 -0.607537 
0.00433811 -0.64706 -0.604436 
9.43774e-005 -0.647374 -0.603644 
-0.00487624 -0.648034 -0.601824 
-0.00936452 -0.648467 -0.60068 
-0.0123121 -0.648167 -0.601707 
-0.0174685 -0.64892 -0.599613 
-0.0240327 -0.650345 -0.595524 
-0.027669 -0.650377 -0.595573 
-0.0321553 -0.650815 -0.594409 
-0.0389034 -0.652334 -0.590036 
-0.0455557 -0.653811 -0.58579 
-0.049906 -0.65419 -0.584802 
-0.0559547 -0.655382 -0.581398 
-0.0605624 -0.655887 -0.580038 
-0.112046 -0.6738 -0.527388 
-0.11337 -0.672746 -0.530655 
-0.117875 -0.67322 -0.529383 
-0.121266 -0.673161 -0.529696 
-0.12497 -0.673251 -0.529569 
-0.125977 -0.672043 -0.533296 
-0.125877 -0.670298 -0.538608 
-0.127946 -0.661088 -0.566802 
-0.126871 -0.658858 -0.573562 
-0.12864 -0.658007 -0.576233 
-0.128667 -0.656308 -0.581418 
-0.13038 -0.655427 -0.584167 
-0.13029 -0.65367 -0.589527 
-0.132951 -0.653249 -0.590916 
-0.134652 -0.65236 -0.593695 
-0.136625 -0.651602 -0.596082 
-0.138396 -0.650746 -0.598762 
-0.139786 -0.649705 -0.602001 
-0.142729 -0.64942 -0.602979 
-0.143148 -0.647902 -0.607635 
-0.14557 -0.647362 -0.609376 
-0.146492 -0.646087 -0.613299 
-0.149521 -0.645844 -0.61416 
-0.150559 -0.644624 -0.617917 
-0.152614 -0.643902 -0.620196 
-0.222681 -0.676596 -0.523171 
-0.229332 -0.678159 -0.518661 
-0.231843 -0.677687 -0.520198 
-0.232891 -0.676495 -0.523876 
-0.234937 -0.675794 -0.526096 
-0.23651 -0.674859 -0.529002 
-0.235947 -0.672869 -0.535057 
-0.168264 -0.637727 -0.639654 
-0.169217 -0.636457 -0.643567 
-0.171276 -0.635733 -0.645856 
-0.170873 -0.633789 -0.651765 
-0.288823 -0.666446 -0.556707 
-0.289945 -0.665277 -0.560316 
-0.290479 -0.663812 -0.564807 
-0.289954 -0.661815 -0.570881 
-0.300665 -0.644518 -0.62407 
-0.302297 -0.643587 -0.626966 
-0.302543 -0.641953 -0.631965 
-0.301572 -0.639699 -0.638803 
-0.265008 -0.594245 -0.776054 
-0.263219 -0.591517 -0.784311 
-0.26449 -0.59036 -0.787891 
-0.270021 -0.591395 -0.784937 
-0.27482 -0.592056 -0.783108 
-0.280843 -0.593349 -0.7794 
-0.286856 -0.594641 -0.775692 
-0.317682 -0.590638 -0.789085 
-0.318298 -0.589136 -0.793693 
-0.320369 -0.58839 -0.79604 
-0.322369 -0.587608 -0.798506 
-0.323916 -0.586588 -0.801675 
-0.325889 -0.58579 -0.804189 
-0.328059 -0.585095 -0.80639 
-0.329051 -0.583782 -0.810431 
-0.322017 -0.578264 -0.826993 
0.0281551 -0.647191 -0.612898 
0.0216936 -0.648546 -0.609015 
0.0187588 -0.648235 -0.610081 
0.0131934 -0.649169 -0.607439 
0.00757229 -0.650131 -0.60472 
0.00350462 -0.65036 -0.604172 
-0.000899552 -0.650748 -0.603155 
-0.00530275 -0.651139 -0.602137 
-0.0101902 -0.65176 -0.600425 
-0.0144388 -0.652079 -0.599613 
-0.0200874 -0.653065 -0.596825 
-0.0240181 -0.653235 -0.596454 
-0.027936 -0.6534 -0.596101 
-0.0332393 -0.654227 -0.593783 
-0.0400236 -0.655762 -0.589351 
-0.0450587 -0.656464 -0.587405 
-0.0507033 -0.65746 -0.584578 
-0.0600869 -0.660245 -0.576428 
-0.0650516 -0.660921 -0.57456 
-0.0698862 -0.661537 -0.572867 
-0.0739314 -0.661775 -0.57229 
-0.112534 -0.678584 -0.522428 
-0.110758 -0.676045 -0.530117 
-0.114927 -0.676356 -0.529334 
-0.118303 -0.676287 -0.529667 
-0.122989 -0.67685 -0.528131 
-0.124802 -0.676031 -0.530704 
-0.124262 -0.674078 -0.536652 
-0.129312 -0.668028 -0.555327 
-0.129988 -0.666652 -0.559553 
-0.128881 -0.664412 -0.566352 
-0.129766 -0.663135 -0.570285 
-0.130169 -0.661623 -0.574922 
-0.131174 -0.660401 -0.578698 
-0.132851 -0.659504 -0.581496 
-0.133791 -0.658249 -0.58537 
-0.135961 -0.65759 -0.587463 
-0.136835 -0.656301 -0.591435 
-0.137335 -0.654828 -0.595954 
-0.139838 -0.65433 -0.597569 
-0.141159 -0.653255 -0.600905 
-0.143518 -0.652685 -0.602734 
-0.145908 -0.652132 -0.604514 
-0.147134 -0.651009 -0.607997 
-0.149423 -0.650404 -0.609934 
-0.150504 -0.649208 -0.613622 
-0.152453 -0.648437 -0.616058 
-0.22073 -0.680186 -0.521694 
-0.223219 -0.679702 -0.523269 
-0.228465 -0.680573 -0.520814 
-0.230283 -0.67976 -0.523367 
-0.232798 -0.67929 -0.524893 
-0.234238 -0.678292 -0.528004 
-0.235468 -0.677189 -0.531418 
-0.236682 -0.676076 -0.534861 
-0.170189 -0.641564 -0.637727 
-0.170722 -0.640088 -0.642256 
-0.170433 -0.638205 -0.647999 
-0.290561 -0.670157 -0.555004 
-0.289918 -0.668107 -0.561236 
-0.290501 -0.666669 -0.565658 
-0.291673 -0.665523 -0.569199 
-0.291875 -0.66389 -0.574188 
-0.301775 -0.647942 -0.623278 
-0.30311 -0.646862 -0.626623 
-0.302882 -0.644989 -0.632336 
-0.302582 -0.643077 -0.638157 
-0.303034 -0.641546 -0.642853 
-0.23727 -0.600989 -0.764208 
-0.237971 -0.599549 -0.768629 
-0.265918 -0.599431 -0.770048 
-0.270085 -0.599766 -0.769187 
-0.273483 -0.599706 -0.7695 
-0.273103 -0.597706 -0.775595 
-0.273092 -0.595892 -0.781132 
-0.28108 -0.598194 -0.774401 
-0.285726 -0.598779 -0.772797 
-0.318703 -0.594079 -0.7884 
-0.320276 -0.593076 -0.791521 
-0.32377 -0.593074 -0.791658 
-0.324712 -0.591741 -0.795766 
-0.326214 -0.5907 -0.798995 
-0.328097 -0.589857 -0.801646 
-0.330923 -0.589505 -0.80283 
-0.330004 -0.587196 -0.809844 
-0.322536 -0.581457 -0.827081 
0.0206263 -0.653652 -0.603253 
0.0190376 -0.652707 -0.606197 
0.014606 -0.653103 -0.60516 
0.0107986 -0.653207 -0.604984 
0.00744902 -0.653094 -0.605454 
0.00374233 -0.653151 -0.605424 
-0.00110402 -0.653749 -0.603781 
-0.00651775 -0.654616 -0.601335 
-0.0113348 -0.655202 -0.599721 
-0.016547 -0.655978 -0.597549 
-0.0203036 -0.656065 -0.597432 
-0.0239183 -0.656085 -0.59751 
-0.0307173 -0.65762 -0.593069 
-0.0360264 -0.658448 -0.590741 
-0.0402769 -0.658775 -0.589899 
-0.0459744 -0.659792 -0.587003 
-0.0537145 -0.661785 -0.581202 
-0.0623526 -0.664212 -0.57411 
-0.065798 -0.664161 -0.574403 
-0.0718301 -0.665348 -0.570999 
-0.077507 -0.666368 -0.568094 
-0.101415 -0.67612 -0.539186 
-0.1119 -0.679454 -0.529393 
-0.114376 -0.678953 -0.531017 
-0.121459 -0.680663 -0.526057 
-0.124713 -0.680538 -0.526566 
-0.123241 -0.678141 -0.533834 
-0.128701 -0.670599 -0.557098 
-0.13067 -0.66985 -0.559465 
-0.128926 -0.667305 -0.567184 
-0.129671 -0.665961 -0.571322 
-0.131713 -0.665243 -0.573591 
-0.133215 -0.664264 -0.576643 
-0.135028 -0.663435 -0.579246 
-0.137718 -0.663031 -0.580586 
-0.138533 -0.661716 -0.584636 
-0.142264 -0.661817 -0.584469 
-0.14152 -0.659743 -0.59079 
-0.14344 -0.658962 -0.593245 
-0.143951 -0.657495 -0.597755 
-0.145098 -0.656335 -0.601335 
-0.146877 -0.655484 -0.604006 
-0.148383 -0.654499 -0.607078 
-0.150269 -0.653699 -0.609602 
-0.151268 -0.652463 -0.613407 
-0.219314 -0.684036 -0.519444 
-0.221905 -0.683604 -0.520872 
-0.22662 -0.684211 -0.51919 
-0.227409 -0.682896 -0.52324 
-0.23082 -0.682865 -0.523465 
-0.231861 -0.681672 -0.527153 
-0.233994 -0.681014 -0.529246 
-0.235541 -0.680067 -0.532201 
-0.236219 -0.678692 -0.536427 
-0.168784 -0.643759 -0.640691 
-0.171079 -0.643152 -0.642628 
-0.171284 -0.641514 -0.647646 
-0.29202 -0.672001 -0.558986 
-0.291481 -0.670004 -0.565071 
-0.291969 -0.668518 -0.569639 
-0.292475 -0.667039 -0.574178 
-0.303655 -0.649999 -0.626692 
-0.30345 -0.64814 -0.632366 
-0.302941 -0.646125 -0.638499 
-0.304623 -0.645218 -0.641337 
-0.23339 -0.605518 -0.76003 
-0.23497 -0.604528 -0.763112 
-0.233938 -0.60221 -0.770165 
-0.238592 -0.602782 -0.76859 
-0.244099 -0.603789 -0.765714 
-0.248705 -0.604341 -0.764197 
-0.272346 -0.605636 -0.761126 
-0.27363 -0.604494 -0.764667 
-0.278656 -0.605271 -0.762476 
-0.282941 -0.605669 -0.761419 
-0.284717 -0.604778 -0.764208 
-0.318066 -0.600291 -0.779175 
-0.317181 -0.598017 -0.786092 
-0.319774 -0.597545 -0.787627 
-0.321182 -0.596458 -0.791002 
-0.32371 -0.595953 -0.792646 
-0.326377 -0.595519 -0.794064 
-0.327584 -0.594326 -0.797762 
-0.329862 -0.593689 -0.799797 
-0.331847 -0.5929 -0.802282 
-0.333434 -0.591901 -0.805392 
-0.323026 -0.584635 -0.827208 
0.0202683 -0.658417 -0.598488 
0.0207956 -0.656478 -0.604397 
0.0178695 -0.656164 -0.605473 
0.0147968 -0.65592 -0.606334 
0.0113572 -0.655848 -0.606687 
0.00737566 -0.656033 -0.606266 
0.00366702 -0.656091 -0.606226 
-0.0033325 -0.657705 -0.60155 
-0.00696971 -0.65773 -0.601609 
-0.0113573 -0.658113 -0.600602 
-0.0154973 -0.658379 -0.599946 
-0.0197372 -0.658694 -0.599144 
-0.0266672 -0.660287 -0.594526 
-0.0326689 -0.661441 -0.59122 
-0.0357739 -0.661221 -0.592002 
-0.0409275 -0.661976 -0.589889 
-0.0482508 -0.663766 -0.584685 
-0.0537536 -0.664692 -0.582054 
-0.0582086 -0.66512 -0.580909 
-0.0653001 -0.666807 -0.576007 
-0.0853439 -0.674683 -0.552657 
-0.0968719 -0.678501 -0.541397 
-0.106029 -0.681192 -0.533502 
-0.11045 -0.681622 -0.532357 
-0.117635 -0.683376 -0.527261 
-0.123718 -0.684604 -0.523719 
-0.123274 -0.682706 -0.529521 
-0.124257 -0.68149 -0.533277 
-0.132254 -0.670081 -0.568494 
-0.131788 -0.668152 -0.574384 
-0.134124 -0.667578 -0.576233 
-0.136248 -0.6669 -0.578385 
-0.138691 -0.666375 -0.580077 
-0.142213 -0.666375 -0.580214 
-0.142865 -0.664983 -0.584499 
-0.145083 -0.664349 -0.586524 
-0.1456 -0.662888 -0.591014 
-0.149504 -0.663074 -0.590584 
-0.14831 -0.660779 -0.597569 
-0.148893 -0.659346 -0.601971 
-0.150056 -0.658194 -0.605542 
-0.151846 -0.657348 -0.608203 
-0.152138 -0.65577 -0.613045 
-0.219414 -0.686927 -0.520187 
-0.222484 -0.686728 -0.520912 
-0.224456 -0.685993 -0.52324 
-0.226952 -0.685513 -0.524795 
-0.229815 -0.685214 -0.525822 
-0.231799 -0.684483 -0.528131 
-0.234452 -0.684081 -0.529461 
-0.235683 -0.68298 -0.532876 
-0.237131 -0.681985 -0.535977 
-0.169835 -0.645428 -0.645357 
-0.293873 -0.675769 -0.557107 
-0.29334 -0.673776 -0.563183 
-0.293188 -0.671972 -0.5687 
-0.293376 -0.670336 -0.573709 
-0.303735 -0.652901 -0.627455 
-0.303491 -0.651024 -0.633188 
-0.304129 -0.649591 -0.63759 
-0.304631 -0.648088 -0.642217 
-0.236071 -0.609792 -0.756871 
-0.232734 -0.606309 -0.767406 
-0.234693 -0.605509 -0.769921 
-0.240381 -0.606607 -0.76677 
-0.24607 -0.607706 -0.763611 
-0.252241 -0.609054 -0.759717 
-0.252081 -0.607179 -0.76545 
-0.272357 -0.608551 -0.762006 
-0.277741 -0.609508 -0.759277 
-0.283833 -0.610831 -0.755452 
-0.288266 -0.611304 -0.75416 
-0.291634 -0.611235 -0.754503 
-0.318353 -0.603346 -0.779625 
-0.31925 -0.601998 -0.783783 
-0.320898 -0.601038 -0.786776 
-0.322606 -0.600107 -0.789691 
-0.32438 -0.59921 -0.792499 
-0.326657 -0.598575 -0.794524 
-0.327928 -0.597416 -0.798124 
-0.330478 -0.596921 -0.799728 
-0.332683 -0.596247 -0.801871 
-0.331513 -0.593812 -0.809277 
-0.324886 -0.588526 -0.825203 
-0.50164 -0.679014 -0.554848 
0.0235651 -0.659771 -0.604025 
0.0200276 -0.659745 -0.604241 
0.0187882 -0.658637 -0.607674 
0.0150874 -0.658687 -0.607665 
0.0118776 -0.658507 -0.60833 
0.00703617 -0.659097 -0.606706 
0.00185232 -0.65985 -0.604583 
-0.0026722 -0.660293 -0.603399 
-0.00639255 -0.660359 -0.603331 
-0.0112653 -0.660968 -0.601648 
-0.0162183 -0.661619 -0.599839 
-0.022357 -0.662832 -0.596346 
-0.0279957 -0.663811 -0.593558 
-0.0311281 -0.663603 -0.594311 
-0.0362953 -0.664361 -0.592178 
-0.041804 -0.665284 -0.589557 
-0.0493533 -0.667178 -0.58402 
-0.0485707 -0.665111 -0.590329 
-0.0792532 -0.678027 -0.551883 
-0.0941376 -0.683433 -0.535869 
-0.0957967 -0.68254 -0.538667 
-0.100719 -0.683205 -0.536809 
-0.105855 -0.683972 -0.534647 
-0.116272 -0.687266 -0.524942 
-0.121747 -0.688203 -0.522271 
-0.122245 -0.686758 -0.526723 
-0.131661 -0.672665 -0.570246 
-0.133239 -0.671724 -0.57319 
-0.133523 -0.670159 -0.577993 
-0.137501 -0.670378 -0.577475 
-0.139923 -0.669844 -0.579197 
-0.142409 -0.669342 -0.580821 
-0.14438 -0.66859 -0.583198 
-0.146625 -0.667971 -0.585184 
-0.148508 -0.667176 -0.587688 
-0.149942 -0.666161 -0.590848 
-0.153076 -0.665973 -0.591543 
-0.151809 -0.663642 -0.598635 
-0.152117 -0.662078 -0.603438 
-0.151229 -0.659927 -0.609993 
-0.219434 -0.691474 -0.515844 
-0.219776 -0.689944 -0.520549 
-0.221866 -0.689267 -0.522702 
-0.224733 -0.688969 -0.523719 
-0.227494 -0.688619 -0.524893 
-0.230039 -0.688164 -0.52638 
-0.232627 -0.68773 -0.527798 
-0.234057 -0.686728 -0.530929 
-0.236176 -0.686064 -0.533042 
-0.237322 -0.684921 -0.536583 
-0.237218 -0.683162 -0.541964 
-0.237405 -0.681546 -0.546924 
-0.294401 -0.678873 -0.557205 
-0.293187 -0.676542 -0.564298 
-0.294832 -0.675638 -0.567125 
-0.295414 -0.674201 -0.571547 
-0.294738 -0.672132 -0.577857 
-0.303271 -0.655528 -0.62904 
-0.303697 -0.653991 -0.633755 
-0.30448 -0.652633 -0.637952 
-0.304663 -0.65097 -0.643049 
-0.305618 -0.649695 -0.646991 
-0.303512 -0.64687 -0.65557 
-0.236455 -0.611111 -0.762662 
-0.236364 -0.609274 -0.768287 
-0.243099 -0.610901 -0.763542 
-0.247822 -0.61151 -0.76185 
-0.252722 -0.612209 -0.759884 
-0.255506 -0.611835 -0.761136 
-0.284805 -0.621395 -0.732912 
-0.284159 -0.619277 -0.739379 
-0.282939 -0.616864 -0.746725 
-0.285946 -0.616609 -0.747616 
-0.289894 -0.616836 -0.747068 
-0.319121 -0.60665 -0.779322 
-0.320182 -0.605387 -0.783235 
-0.321517 -0.604266 -0.786717 
-0.323248 -0.603348 -0.789584 
-0.324963 -0.602423 -0.792489 
-0.327139 -0.601735 -0.794671 
-0.329119 -0.600945 -0.797156 
-0.331364 -0.600292 -0.799239 
-0.332289 -0.598953 -0.803377 
-0.334746 -0.598409 -0.805129 
-0.328701 -0.593434 -0.820145 
-0.348096 -0.594419 -0.817836 
0.0236795 -0.662623 -0.605101 
0.0218912 -0.661775 -0.607772 
0.0187999 -0.661538 -0.608613 
0.0150159 -0.661627 -0.608477 
0.0110618 -0.661796 -0.608095 
0.00561085 -0.662673 -0.60561 
0.0020822 -0.662644 -0.605826 
