ply
format ascii 1.0
comment VCGLIB generated
element vertex 1558
property float x
property float y
property float z
element face 0
property list uchar int vertex_indices
end_header
-0.650361 -0.8745 -0.875421 
-0.656515 -0.874903 -0.873695 
-0.662842 -0.874443 -0.87151 
-0.668478 -0.873062 -0.869209 
-0.673195 -0.871394 -0.867081 
-0.678141 -0.868921 -0.864493 
-0.68349 -0.865528 -0.861387 
-0.689357 -0.860639 -0.857533 
-0.695051 -0.856325 -0.853967 
-0.69971 -0.855233 -0.852012 
-0.705116 -0.852184 -0.849078 
-0.710753 -0.848388 -0.845742 
-0.716504 -0.844477 -0.842234 
-0.722773 -0.842349 -0.839358 
-0.588416 -0.828545 -0.869899 
-0.592615 -0.832514 -0.870244 
-0.595721 -0.836597 -0.871049 
-0.598654 -0.841256 -0.872027 
-0.601645 -0.845857 -0.873062 
-0.604693 -0.849941 -0.87381 
-0.607799 -0.853795 -0.8745 
-0.611768 -0.858108 -0.875075 
-0.616714 -0.86248 -0.875421 
-0.621948 -0.865758 -0.875133 
-0.627297 -0.868634 -0.87473 
-0.632703 -0.871337 -0.874213 
-0.638225 -0.873638 -0.873408 
-0.643747 -0.875823 -0.87266 
-0.649441 -0.877146 -0.871452 
-0.655537 -0.877549 -0.869784 
-0.661979 -0.876916 -0.867483 
-0.667558 -0.875708 -0.86524 
-0.672274 -0.87404 -0.863112 
-0.677106 -0.872027 -0.860754 
-0.682225 -0.869266 -0.857993 
-0.686366 -0.866276 -0.855463 
-0.690047 -0.863055 -0.852932 
-0.696374 -0.857706 -0.848676 
-0.702068 -0.854542 -0.845627 
-0.706784 -0.850286 -0.842349 
-0.711615 -0.8458 -0.838898 
-0.718172 -0.842637 -0.835505 
-0.723751 -0.842521 -0.833722 
-0.587956 -0.82958 -0.864895 
-0.59227 -0.832974 -0.86501 
-0.595318 -0.837288 -0.865873 
-0.598079 -0.842752 -0.867311 
-0.601012 -0.847468 -0.868404 
-0.604003 -0.851782 -0.869266 
-0.607857 -0.856613 -0.870129 
-0.612688 -0.861617 -0.870762 
-0.617692 -0.865815 -0.870992 
-0.622926 -0.869036 -0.870704 
-0.628217 -0.87197 -0.870302 
-0.633681 -0.8745 -0.869727 
-0.639145 -0.876858 -0.868979 
-0.644782 -0.878641 -0.868001 
-0.650648 -0.879562 -0.866621 
-0.657033 -0.879102 -0.864435 
-0.66359 -0.877951 -0.861904 
-0.669399 -0.876111 -0.859316 
-0.674172 -0.874213 -0.857015 
-0.678831 -0.872717 -0.854945 
-0.683778 -0.870532 -0.852472 
-0.690219 -0.865585 -0.848331 
-0.697811 -0.858798 -0.843097 
-0.704828 -0.852529 -0.838265 
-0.71012 -0.848216 -0.834757 
-0.716217 -0.844074 -0.831076 
-0.722198 -0.843442 -0.828948 
-0.585886 -0.82843 -0.859144 
-0.590889 -0.833261 -0.859604 
-0.594455 -0.839703 -0.861272 
-0.597216 -0.845282 -0.862767 
-0.60084 -0.851034 -0.86409 
-0.605441 -0.857131 -0.86524 
-0.610215 -0.862249 -0.86593 
-0.615161 -0.866621 -0.866218 
-0.620223 -0.870647 -0.866333 
-0.625572 -0.873408 -0.865873 
-0.630921 -0.875996 -0.865298 
-0.636442 -0.878239 -0.86455 
-0.642079 -0.880022 -0.863572 
-0.648175 -0.880194 -0.861789 
-0.65479 -0.878929 -0.859201 
-0.661059 -0.878757 -0.857131 
-0.66658 -0.877664 -0.854945 
-0.671527 -0.875306 -0.852414 
-0.677508 -0.872947 -0.849538 
-0.684238 -0.87174 -0.846893 
-0.69183 -0.866506 -0.842291 
-0.69994 -0.858338 -0.83631 
-0.706669 -0.852932 -0.831881 
-0.712881 -0.84764 -0.827625 
-0.71938 -0.84465 -0.824346 
-0.723866 -0.844535 -0.822851 
-0.583642 -0.826129 -0.852989 
-0.587784 -0.830501 -0.853565 
-0.590717 -0.835562 -0.85483 
-0.59342 -0.841199 -0.856325 
-0.596181 -0.846663 -0.857821 
-0.599804 -0.852529 -0.859201 
-0.604406 -0.858453 -0.860236 
-0.609179 -0.86363 -0.860984 
-0.614126 -0.868116 -0.861387 
-0.619187 -0.87197 -0.861444 
-0.624536 -0.874845 -0.861042 
-0.629943 -0.877376 -0.860409 
-0.635464 -0.879619 -0.859661 
-0.641331 -0.880482 -0.858166 
-0.647945 -0.878929 -0.855463 
-0.654099 -0.879159 -0.853622 
-0.660081 -0.879964 -0.852127 
-0.665948 -0.877779 -0.849366 
-0.671239 -0.874213 -0.846202 
-0.676933 -0.872775 -0.843787 
-0.682857 -0.874098 -0.842521 
-0.687401 -0.873292 -0.840738 
-0.692808 -0.868346 -0.836885 
-0.701032 -0.859776 -0.830673 
-0.708222 -0.852989 -0.825497 
-0.714894 -0.84649 -0.82055 
-0.719552 -0.845742 -0.818767 
-0.58324 -0.823484 -0.846433 
-0.587151 -0.828718 -0.84741 
-0.590027 -0.834009 -0.848791 
-0.592672 -0.840163 -0.850631 
-0.595203 -0.846548 -0.852587 
-0.597964 -0.851782 -0.85391 
-0.60176 -0.856958 -0.855002 
-0.606419 -0.862595 -0.855923 
-0.611308 -0.867196 -0.856383 
-0.616369 -0.871222 -0.856498 
-0.621545 -0.874673 -0.85644 
-0.626894 -0.877376 -0.855923 
-0.632358 -0.879677 -0.855175 
-0.638225 -0.880655 -0.853737 
-0.645012 -0.878526 -0.850746 
-0.650994 -0.879274 -0.849193 
-0.65709 -0.879619 -0.847468 
-0.661634 -0.878354 -0.845455 
-0.665257 -0.875075 -0.842924 
-0.672562 -0.869727 -0.83838 
-0.677451 -0.874788 -0.839013 
-0.682972 -0.877204 -0.838323 
-0.69183 -0.871452 -0.833031 
-0.703621 -0.858971 -0.823944 
-0.713053 -0.848848 -0.816582 
-0.71777 -0.847928 -0.814684 
-0.580191 -0.813246 -0.837748 
-0.581974 -0.819228 -0.839818 
-0.58508 -0.823714 -0.840796 
-0.587956 -0.82912 -0.842234 
-0.590659 -0.834987 -0.843902 
-0.593018 -0.842349 -0.846318 
-0.595548 -0.848733 -0.848273 
-0.598309 -0.854082 -0.849769 
-0.6013 -0.858338 -0.850631 
-0.605211 -0.862997 -0.851379 
-0.6101 -0.867656 -0.851897 
-0.615161 -0.871625 -0.852012 
-0.620338 -0.87496 -0.851839 
-0.625629 -0.877779 -0.851436 
-0.631093 -0.880367 -0.850804 
-0.637017 -0.881057 -0.849308 
-0.642884 -0.878584 -0.846433 
-0.64806 -0.878526 -0.844765 
-0.653237 -0.878411 -0.843097 
-0.657148 -0.875766 -0.840738 
-0.662554 -0.871855 -0.837345 
-0.668593 -0.872602 -0.835792 
-0.67354 -0.876974 -0.836137 
-0.679004 -0.879619 -0.835562 
-0.684065 -0.880194 -0.834239 
-0.687574 -0.879274 -0.832744 
-0.714606 -0.850631 -0.811751 
-0.582147 -0.815086 -0.832801 
-0.58508 -0.820493 -0.834297 
-0.587841 -0.826532 -0.836022 
-0.590429 -0.833319 -0.838208 
-0.592672 -0.841084 -0.840854 
-0.594973 -0.848216 -0.843212 
-0.597734 -0.853737 -0.844765 
-0.600495 -0.858798 -0.846088 
-0.604463 -0.863227 -0.84672 
-0.60941 -0.867713 -0.847123 
-0.614471 -0.871682 -0.847295 
-0.61959 -0.875306 -0.847295 
-0.624824 -0.878411 -0.847008 
-0.630173 -0.881115 -0.84649 
-0.635119 -0.881747 -0.845225 
-0.639605 -0.880367 -0.843212 
-0.644379 -0.878296 -0.840854 
-0.648693 -0.877606 -0.839186 
-0.653122 -0.876628 -0.837403 
-0.658068 -0.877434 -0.836195 
-0.662784 -0.879159 -0.835447 
-0.668478 -0.877606 -0.832974 
-0.673827 -0.880655 -0.832686 
-0.679464 -0.882783 -0.831824 
-0.684755 -0.882553 -0.830041 
-0.689644 -0.880597 -0.827682 
-0.58278 -0.811463 -0.825669 
-0.585656 -0.817157 -0.82728 
-0.588186 -0.824346 -0.829695 
-0.590487 -0.832284 -0.832456 
-0.5925 -0.840969 -0.83562 
-0.594801 -0.848446 -0.83815 
-0.597504 -0.854025 -0.839703 
-0.600437 -0.858511 -0.840738 
-0.604406 -0.862997 -0.841486 
-0.60941 -0.867138 -0.841716 
-0.614759 -0.870014 -0.841314 
-0.62005 -0.873062 -0.840969 
-0.624996 -0.877376 -0.841314 
-0.629943 -0.881517 -0.841601 
-0.635867 -0.882207 -0.840048 
-0.641733 -0.879792 -0.837173 
-0.646565 -0.877549 -0.834699 
-0.651741 -0.877376 -0.832974 
-0.654617 -0.885141 -0.835505 
-0.660599 -0.879159 -0.830961 
-0.665545 -0.879964 -0.829753 
-0.671009 -0.88261 -0.829235 
-0.676646 -0.884566 -0.828315 
-0.681765 -0.885026 -0.826935 
-0.686308 -0.884105 -0.825094 
-0.689932 -0.882668 -0.823311 
-0.584965 -0.810485 -0.818882 
-0.587841 -0.816122 -0.820493 
-0.589394 -0.822909 -0.823024 
-0.590774 -0.830386 -0.825957 
-0.592787 -0.839358 -0.829235 
-0.594973 -0.847238 -0.831996 
-0.598539 -0.853392 -0.833607 
-0.603485 -0.858281 -0.834182 
-0.608432 -0.862767 -0.834584 
-0.613838 -0.865585 -0.834182 
-0.61936 -0.867771 -0.833434 
-0.625226 -0.868864 -0.832054 
-0.629253 -0.872832 -0.832571 
-0.631553 -0.879217 -0.834584 
-0.635464 -0.8833 -0.835159 
-0.641043 -0.881862 -0.832801 
-0.64691 -0.879677 -0.830041 
-0.653179 -0.879332 -0.827912 
-0.658988 -0.88077 -0.826705 
-0.664567 -0.883013 -0.825957 
-0.670089 -0.885486 -0.825324 
-0.675898 -0.886809 -0.824116 
-0.68211 -0.887096 -0.822276 
-0.687919 -0.885486 -0.819745 
-0.694763 -0.879504 -0.814971 
-0.703103 -0.870819 -0.80853 
-0.709142 -0.867426 -0.805079 
-0.589509 -0.813821 -0.813016 
-0.591407 -0.819055 -0.814799 
-0.59227 -0.824462 -0.816984 
-0.593535 -0.832284 -0.82009 
-0.595721 -0.840393 -0.822966 
-0.598539 -0.845627 -0.824404 
-0.601357 -0.850919 -0.825842 
-0.604866 -0.857188 -0.82751 
-0.609927 -0.861502 -0.827855 
-0.614816 -0.86248 -0.826762 
-0.620395 -0.858798 -0.823369 
-0.627987 -0.857648 -0.820493 
-0.631208 -0.862767 -0.821758 
-0.633221 -0.870417 -0.824519 
-0.634602 -0.879907 -0.828258 
-0.63811 -0.885658 -0.829695 
-0.643632 -0.884221 -0.827337 
-0.649211 -0.883013 -0.825037 
-0.655307 -0.8833 -0.823254 
-0.661059 -0.884911 -0.822218 
-0.666638 -0.887039 -0.821413 
-0.672389 -0.888649 -0.82032 
-0.678486 -0.889282 -0.818652 
-0.685043 -0.888649 -0.816352 
-0.689932 -0.886636 -0.813936 
-0.694763 -0.88192 -0.81037 
-0.701608 -0.874328 -0.804849 
-0.708452 -0.870302 -0.80088 
-0.595088 -0.818997 -0.807494 
-0.596756 -0.82958 -0.811808 
-0.598999 -0.837575 -0.814741 
-0.602738 -0.843327 -0.816122 
-0.606074 -0.850574 -0.818307 
-0.609697 -0.852472 -0.817962 
-0.614816 -0.852644 -0.816467 
-0.617634 -0.857763 -0.817905 
-0.619475 -0.866103 -0.821011 
-0.624134 -0.867944 -0.82032 
-0.629943 -0.865528 -0.817445 
-0.633854 -0.870187 -0.818307 
-0.635924 -0.877434 -0.820896 
-0.637305 -0.886694 -0.824577 
-0.641676 -0.889224 -0.824289 
-0.648463 -0.887326 -0.821356 
-0.654847 -0.886751 -0.819113 
-0.660714 -0.887902 -0.81779 
-0.666465 -0.889512 -0.816754 
-0.672332 -0.89072 -0.815432 
-0.678429 -0.891295 -0.813764 
-0.6851 -0.89026 -0.811233 
-0.691197 -0.887959 -0.8083 
-0.697409 -0.882265 -0.803871 
-0.704426 -0.874558 -0.798177 
-0.70897 -0.870704 -0.795071 
-0.599229 -0.818135 -0.799672 
-0.599804 -0.824634 -0.80249 
-0.601127 -0.832111 -0.805481 
-0.603658 -0.838783 -0.807724 
-0.606649 -0.843269 -0.808817 
-0.608662 -0.849653 -0.81106 
-0.609525 -0.858281 -0.814626 
-0.611308 -0.865355 -0.817215 
-0.615161 -0.870704 -0.818422 
-0.624594 -0.864895 -0.812901 
-0.630058 -0.868346 -0.812728 
-0.634084 -0.872487 -0.813361 
-0.6365 -0.878296 -0.815201 
-0.637822 -0.887959 -0.819055 
-0.640813 -0.893423 -0.820608 
-0.648405 -0.891985 -0.81756 
-0.654502 -0.890777 -0.815144 
-0.660714 -0.89072 -0.813188 
-0.666753 -0.89141 -0.811635 
-0.672735 -0.89233 -0.810198 
-0.678889 -0.89279 -0.808472 
-0.685503 -0.89187 -0.805999 
-0.691542 -0.889627 -0.803123 
-0.599632 -0.811635 -0.790757 
-0.601472 -0.817042 -0.792655 
-0.602278 -0.822333 -0.794783 
-0.602795 -0.828833 -0.797602 
-0.604118 -0.836195 -0.800535 
-0.606534 -0.843269 -0.803008 
-0.609295 -0.848791 -0.804676 
-0.613033 -0.854255 -0.805941 
-0.617692 -0.860121 -0.807207 
-0.622581 -0.865125 -0.807897 
-0.627527 -0.869496 -0.808357 
-0.632473 -0.874098 -0.808875 
-0.635924 -0.879964 -0.810428 
-0.637075 -0.886694 -0.813073 
-0.637822 -0.894401 -0.816294 
-0.640986 -0.897622 -0.816754 
-0.64576 -0.897047 -0.815086 
-0.653524 -0.894458 -0.811463 
-0.659851 -0.893308 -0.80899 
-0.666063 -0.893423 -0.807092 
-0.672217 -0.893711 -0.805366 
-0.678486 -0.893883 -0.803468 
-0.685043 -0.893135 -0.80111 
-0.69114 -0.890777 -0.798177 
-0.605498 -0.80203 -0.779196 
-0.609352 -0.803756 -0.778736 
-0.606821 -0.842809 -0.797372 
-0.609122 -0.850229 -0.800017 
-0.611883 -0.855635 -0.801628 
-0.614931 -0.859719 -0.802548 
-0.6189 -0.86409 -0.803296 
-0.623904 -0.868634 -0.803813 
-0.628965 -0.87266 -0.804043 
-0.632991 -0.876686 -0.804619 
-0.635752 -0.88146 -0.805884 
-0.63696 -0.887902 -0.808472 
-0.637477 -0.896299 -0.812096 
-0.641446 -0.900325 -0.812671 
-0.64645 -0.90067 -0.81129 
-0.651339 -0.898139 -0.808587 
-0.65617 -0.895896 -0.806114 
-0.661634 -0.894976 -0.803986 
-0.668133 -0.894343 -0.801685 
-0.674518 -0.894056 -0.799615 
-0.680672 -0.894458 -0.797889 
-0.686308 -0.893538 -0.795704 
-0.690047 -0.891813 -0.793748 
-0.608547 -0.801858 -0.7731 
-0.610675 -0.808185 -0.775285 
-0.6101 -0.822736 -0.782072 
-0.608834 -0.838265 -0.789664 
-0.60941 -0.848216 -0.794036 
-0.611768 -0.855233 -0.796566 
-0.614644 -0.860064 -0.797832 
-0.617749 -0.863802 -0.798579 
-0.621891 -0.867771 -0.799097 
-0.626894 -0.872027 -0.7995 
-0.631036 -0.875593 -0.799845 
-0.634256 -0.878814 -0.800305 
-0.636442 -0.88192 -0.800995 
-0.63696 -0.887154 -0.803238 
-0.636845 -0.894631 -0.806689 
-0.639145 -0.900613 -0.808645 
-0.643804 -0.902223 -0.807954 
-0.648405 -0.90044 -0.805711 
-0.653064 -0.898715 -0.803526 
-0.657608 -0.897622 -0.801628 
-0.662267 -0.895954 -0.799385 
-0.667846 -0.891525 -0.795704 
-0.673022 -0.89187 -0.794266 
-0.678544 -0.894286 -0.793633 
-0.683605 -0.894861 -0.79231 
-0.688206 -0.893711 -0.790412 
-0.614528 -0.808357 -0.769016 
-0.611595 -0.852529 -0.79024 
-0.614068 -0.858856 -0.792425 
-0.617059 -0.863285 -0.793518 
-0.620165 -0.867023 -0.794266 
-0.624306 -0.870877 -0.794726 
-0.629368 -0.875018 -0.795013 
-0.634314 -0.879217 -0.795416 
-0.638225 -0.88376 -0.796336 
-0.639778 -0.888937 -0.798234 
-0.640583 -0.896586 -0.801455 
-0.644437 -0.9009 -0.80226 
-0.650361 -0.901705 -0.800765 
-0.655882 -0.90044 -0.798464 
-0.660944 -0.897622 -0.795646 
-0.666408 -0.893596 -0.792138 
-0.671929 -0.89279 -0.790067 
-0.677393 -0.895379 -0.789549 
-0.682282 -0.896471 -0.788572 
-0.686768 -0.895839 -0.786904 
-0.617979 -0.812211 -0.76453 
-0.615104 -0.859316 -0.787134 
-0.618037 -0.864032 -0.788457 
-0.621948 -0.868691 -0.789377 
-0.626894 -0.873235 -0.789952 
-0.631898 -0.877491 -0.790355 
-0.635982 -0.881287 -0.790815 
-0.63903 -0.885083 -0.79162 
-0.641446 -0.891007 -0.793575 
-0.643459 -0.898024 -0.796221 
-0.647313 -0.902281 -0.796969 
-0.652316 -0.902741 -0.795589 
-0.657435 -0.899577 -0.792598 
-0.662209 -0.897794 -0.790297 
-0.666925 -0.896011 -0.788054 
-0.672332 -0.895494 -0.786156 
-0.678141 -0.897047 -0.785063 
-0.683145 -0.897794 -0.783855 
-0.686653 -0.896932 -0.78236 
-0.618094 -0.861674 -0.782532 
-0.62097 -0.866448 -0.783855 
-0.624134 -0.870014 -0.784488 
-0.627412 -0.873177 -0.784948 
-0.630805 -0.875881 -0.785121 
-0.634199 -0.878699 -0.785351 
-0.637592 -0.881345 -0.785581 
-0.640756 -0.884681 -0.786156 
-0.642539 -0.889052 -0.787594 
-0.643977 -0.894746 -0.789779 
-0.647888 -0.89883 -0.79047 
-0.652604 -0.900325 -0.789722 
-0.657723 -0.900498 -0.788226 
-0.663072 -0.900037 -0.786328 
-0.668191 -0.897277 -0.78351 
-0.673425 -0.897162 -0.781842 
-0.679234 -0.898772 -0.780807 
-0.683548 -0.898542 -0.779312 
-0.619877 -0.861559 -0.777931 
-0.622753 -0.866218 -0.779196 
-0.625917 -0.870014 -0.780002 
-0.62908 -0.873465 -0.780634 
-0.632473 -0.876226 -0.780807 
-0.635867 -0.878814 -0.780979 
-0.639433 -0.881057 -0.780922 
-0.642884 -0.883358 -0.780864 
-0.645184 -0.886176 -0.781497 
-0.64622 -0.889685 -0.78282 
-0.647888 -0.894343 -0.784488 
-0.650706 -0.898715 -0.785638 
-0.654042 -0.90136 -0.785811 
-0.657953 -0.902223 -0.785006 
-0.662612 -0.900613 -0.78282 
-0.667846 -0.897392 -0.779714 
-0.671987 -0.897449 -0.778506 
-0.675668 -0.89906 -0.778104 
-0.679752 -0.89952 -0.777011 
-0.623271 -0.863687 -0.774538 
-0.626262 -0.868174 -0.775746 
-0.629368 -0.871912 -0.776551 
-0.632588 -0.875191 -0.777011 
-0.636039 -0.877721 -0.777126 
-0.63949 -0.880137 -0.777183 
-0.643056 -0.882265 -0.777126 
-0.645472 -0.884681 -0.777529 
-0.646737 -0.887384 -0.778391 
-0.647715 -0.891122 -0.779829 
-0.648635 -0.894918 -0.781267 
-0.650648 -0.898484 -0.782302 
-0.653869 -0.901475 -0.782705 
-0.657953 -0.90182 -0.781612 
-0.661519 -0.900325 -0.779829 
-0.664107 -0.898772 -0.778334 
-0.667673 -0.897449 -0.776608 
-0.671469 -0.898715 -0.776033 
-0.675265 -0.900037 -0.775458 
-0.679579 -0.89975 -0.77402 
-0.706439 -0.842752 -0.73928 
-0.709545 -0.840221 -0.737152 
-0.630058 -0.868634 -0.768786 
-0.634602 -0.874615 -0.770109 
-0.63949 -0.879389 -0.770857 
-0.644494 -0.883703 -0.771374 
-0.648348 -0.888362 -0.772352 
-0.651856 -0.893941 -0.773905 
-0.656918 -0.898024 -0.77425 
-0.662842 -0.89906 -0.772927 
-0.668708 -0.900325 -0.771719 
-0.67492 -0.900785 -0.770051 
-0.703391 -0.844707 -0.735139 
-0.7092 -0.840854 -0.731631 
-0.634084 -0.871394 -0.765278 
-0.637075 -0.875651 -0.76637 
-0.640123 -0.879504 -0.767233 
-0.643286 -0.88307 -0.767923 
-0.64645 -0.886406 -0.768499 
-0.649556 -0.890202 -0.769361 
-0.652546 -0.893941 -0.770167 
-0.655997 -0.896414 -0.770282 
-0.659563 -0.898369 -0.770051 
-0.663302 -0.899922 -0.769649 
-0.667156 -0.900958 -0.769016 
-0.671297 -0.901015 -0.767751 
-0.67492 -0.899692 -0.766025 
-0.700515 -0.845397 -0.732781 
-0.704311 -0.844189 -0.731056 
-0.707014 -0.842752 -0.729618 
-0.70989 -0.840969 -0.72795 
-0.636787 -0.84649 -0.749058 
-0.638973 -0.876283 -0.762287 
-0.642079 -0.879964 -0.763035 
-0.645012 -0.884393 -0.764242 
-0.647945 -0.888534 -0.765278 
-0.650994 -0.892273 -0.766083 
-0.654214 -0.895551 -0.766658 
-0.657665 -0.897852 -0.766658 
-0.661404 -0.89929 -0.766198 
-0.665545 -0.899462 -0.765048 
-0.668823 -0.899117 -0.763897 
-0.694188 -0.844477 -0.730538 
-0.698502 -0.844937 -0.729388 
-0.703333 -0.843902 -0.72749 
-0.708624 -0.841429 -0.724729 
-0.665948 -0.792655 -0.710925 
-0.647715 -0.887384 -0.761079 
-0.650821 -0.891065 -0.761827 
-0.654157 -0.893883 -0.762172 
-0.657665 -0.896184 -0.762172 
-0.660196 -0.898139 -0.762287 
-0.687056 -0.837173 -0.725419 
-0.690104 -0.841486 -0.726512 
-0.693958 -0.843384 -0.726282 
-0.698214 -0.843902 -0.725189 
-0.702815 -0.843557 -0.723636 
-0.707877 -0.841889 -0.721336 
-0.712018 -0.839588 -0.718977 
-0.666638 -0.792138 -0.706669 
-0.667616 -0.796681 -0.708567 
-0.668708 -0.800535 -0.710005 
-0.669974 -0.803986 -0.71127 
-0.671239 -0.807379 -0.712478 
-0.672504 -0.810485 -0.713571 
-0.674575 -0.814741 -0.714951 
-0.677451 -0.820148 -0.716619 
-0.680327 -0.825209 -0.718172 
-0.683317 -0.829926 -0.719437 
-0.686308 -0.834584 -0.720703 
-0.689357 -0.839071 -0.721911 
-0.692865 -0.841889 -0.722198 
-0.696834 -0.843327 -0.721623 
-0.701205 -0.843729 -0.720473 
-0.705921 -0.843039 -0.718747 
-0.709832 -0.841429 -0.716792 
-0.712708 -0.839703 -0.715124 
-0.715641 -0.837633 -0.713283 
-0.668478 -0.794553 -0.703218 
-0.669514 -0.798867 -0.705001 
-0.670606 -0.802778 -0.706496 
-0.672562 -0.807494 -0.708107 
-0.675265 -0.813533 -0.710177 
-0.678084 -0.819055 -0.71196 
-0.680959 -0.824289 -0.713513 
-0.68395 -0.829005 -0.714836 
-0.686999 -0.833549 -0.716044 
-0.690047 -0.83792 -0.717194 
-0.69344 -0.841256 -0.717712 
-0.697351 -0.842924 -0.717309 
-0.701665 -0.843442 -0.716274 
-0.706324 -0.842982 -0.714664 
-0.711328 -0.841429 -0.712363 
-0.715584 -0.838956 -0.709947 
-0.668939 -0.795531 -0.699019 
-0.670664 -0.801398 -0.701262 
-0.67331 -0.807724 -0.703448 
-0.676013 -0.813591 -0.705404 
-0.678889 -0.819055 -0.707129 
-0.681765 -0.824174 -0.708682 
-0.684813 -0.82889 -0.710005 
-0.687861 -0.833376 -0.711155 
-0.690967 -0.83769 -0.712248 
-0.694361 -0.841026 -0.712823 
-0.698157 -0.842982 -0.712593 
-0.70247 -0.843499 -0.7115 
-0.707187 -0.842867 -0.709775 
-0.712248 -0.841256 -0.707474 
-0.716447 -0.838898 -0.705116 
-0.668248 -0.793288 -0.693038 
-0.669859 -0.799327 -0.695453 
-0.672447 -0.806114 -0.697927 
-0.67515 -0.812153 -0.69994 
-0.678026 -0.817387 -0.70155 
-0.680959 -0.822448 -0.703103 
-0.684065 -0.826992 -0.704311 
-0.687171 -0.831478 -0.705519 
-0.690162 -0.83608 -0.706784 
-0.693383 -0.839991 -0.707647 
-0.698099 -0.842694 -0.707474 
-0.703563 -0.843212 -0.706094 
-0.708222 -0.842752 -0.704426 
-0.713283 -0.841084 -0.702125 
-0.717539 -0.838553 -0.699595 
-0.668939 -0.796106 -0.688609 
-0.671412 -0.803353 -0.691312 
-0.674172 -0.809277 -0.693325 
-0.677106 -0.814569 -0.694993 
-0.679982 -0.819918 -0.696661 
-0.68303 -0.824692 -0.697984 
-0.686078 -0.829235 -0.699249 
-0.689127 -0.833779 -0.700457 
-0.69229 -0.838035 -0.70155 
-0.696661 -0.841889 -0.702068 
-0.702815 -0.843557 -0.700975 
-0.708567 -0.843269 -0.699077 
-0.713571 -0.841831 -0.696891 
-0.717885 -0.839128 -0.694246 
-0.802433 -0.745147 -0.623559 
-0.807552 -0.743422 -0.621143 
-0.814914 -0.740891 -0.617692 
-0.820033 -0.739165 -0.615219 
-0.668766 -0.796624 -0.682915 
-0.671354 -0.803411 -0.685388 
-0.674172 -0.80922 -0.687344 
-0.677048 -0.814569 -0.689012 
-0.679982 -0.819803 -0.69068 
-0.682972 -0.824749 -0.692117 
-0.686078 -0.829235 -0.693325 
-0.689127 -0.833837 -0.694591 
-0.69229 -0.838035 -0.695683 
-0.696489 -0.842349 -0.696431 
-0.702643 -0.844362 -0.695511 
-0.708222 -0.84442 -0.693843 
-0.713111 -0.843327 -0.69183 
-0.718632 -0.840336 -0.688724 
-0.80226 -0.749173 -0.619532 
-0.808127 -0.747103 -0.616714 
-0.814109 -0.744802 -0.613723 
-0.818595 -0.743077 -0.61148 
-0.666753 -0.795589 -0.676703 
-0.669399 -0.802088 -0.679004 
-0.672274 -0.807724 -0.680844 
-0.675093 -0.813418 -0.682742 
-0.678026 -0.818767 -0.684468 
-0.681074 -0.823599 -0.685848 
-0.68418 -0.828085 -0.687056 
-0.687286 -0.832571 -0.688321 
-0.691197 -0.838035 -0.689702 
-0.696316 -0.843097 -0.690564 
-0.70224 -0.84557 -0.689989 
-0.709027 -0.845512 -0.687919 
-0.715354 -0.843499 -0.684985 
-0.721105 -0.839991 -0.681592 
-0.81037 -0.748195 -0.6101 
-0.816409 -0.745722 -0.606994 
-0.664567 -0.795991 -0.671239 
-0.667213 -0.802663 -0.673712 
-0.670031 -0.80853 -0.675668 
-0.672965 -0.813936 -0.677451 
-0.676013 -0.818882 -0.678889 
-0.679061 -0.823714 -0.680327 
-0.682167 -0.828258 -0.681592 
-0.685388 -0.832514 -0.682685 
-0.689299 -0.837863 -0.684065 
-0.694303 -0.843327 -0.685158 
-0.700227 -0.845972 -0.684698 
-0.706784 -0.846605 -0.682972 
-0.712881 -0.845167 -0.680442 
-0.718345 -0.842521 -0.677508 
-0.722831 -0.839358 -0.674633 
-0.662324 -0.796394 -0.66612 
-0.665027 -0.802951 -0.668536 
-0.667903 -0.808645 -0.670434 
-0.670894 -0.813821 -0.672044 
-0.673885 -0.81894 -0.673597 
-0.677048 -0.823541 -0.67492 
-0.680097 -0.828258 -0.676301 
-0.68326 -0.832571 -0.677508 
-0.686481 -0.836827 -0.678601 
-0.690564 -0.841659 -0.679636 
-0.696028 -0.84557 -0.679924 
-0.70224 -0.847353 -0.678889 
-0.707934 -0.847238 -0.677163 
-0.712823 -0.84603 -0.675035 
-0.71823 -0.843557 -0.672217 
-0.724384 -0.838956 -0.668076 
-0.661231 -0.79996 -0.662324 
-0.66405 -0.805999 -0.664395 
-0.666925 -0.811808 -0.666408 
-0.669916 -0.816927 -0.668018 
-0.673022 -0.821816 -0.669514 
-0.676128 -0.826475 -0.670837 
-0.679291 -0.830846 -0.671987 
-0.682512 -0.835102 -0.673137 
-0.686596 -0.839933 -0.67423 
-0.691715 -0.844995 -0.675208 
-0.697524 -0.848101 -0.674978 
-0.703966 -0.849078 -0.673482 
-0.709775 -0.848503 -0.671412 
-0.714894 -0.84672 -0.668996 
-0.720588 -0.843442 -0.665718 
-0.725362 -0.839761 -0.662439 
-0.658241 -0.801685 -0.658068 
-0.661001 -0.807897 -0.660311 
-0.663935 -0.813533 -0.662209 
-0.666983 -0.81848 -0.663705 
-0.670089 -0.823311 -0.665142 
-0.673252 -0.827855 -0.666465 
-0.676473 -0.832169 -0.667616 
-0.680557 -0.83723 -0.668881 
-0.685503 -0.842809 -0.670089 
-0.690852 -0.847295 -0.670664 
-0.696776 -0.849999 -0.670261 
-0.703218 -0.850804 -0.668651 
-0.709142 -0.849941 -0.666465 
-0.714261 -0.848158 -0.66405 
-0.720013 -0.844765 -0.660656 
-0.724959 -0.840566 -0.65709 
-0.654962 -0.803008 -0.653639 
-0.657838 -0.809737 -0.656055 
-0.660944 -0.815834 -0.658126 
-0.663992 -0.820953 -0.659736 
-0.667098 -0.825727 -0.661174 
-0.670204 -0.830328 -0.662497 
-0.67423 -0.83562 -0.663877 
-0.679291 -0.841199 -0.665142 
-0.68441 -0.846375 -0.66612 
-0.689932 -0.850229 -0.66635 
-0.695971 -0.852414 -0.665603 
-0.702528 -0.852932 -0.663877 
-0.708509 -0.851897 -0.661577 
-0.713743 -0.849768 -0.658931 
-0.719668 -0.845972 -0.65525 
-0.724614 -0.841659 -0.651626 
-0.728065 -0.838495 -0.648981 
-0.65502 -0.812958 -0.652316 
-0.657895 -0.81871 -0.654329 
-0.660944 -0.823944 -0.655997 
-0.66405 -0.828718 -0.657378 
-0.667156 -0.833261 -0.658701 
-0.671297 -0.83838 -0.660024 
-0.676301 -0.843844 -0.661231 
-0.681534 -0.848791 -0.662094 
-0.687056 -0.852644 -0.662324 
-0.693095 -0.85483 -0.661519 
-0.699594 -0.855405 -0.659851 
-0.705461 -0.854772 -0.657838 
-0.71058 -0.852932 -0.655365 
-0.716159 -0.849941 -0.652144 
-0.722543 -0.844822 -0.647658 
-0.727662 -0.840106 -0.643747 
-0.731113 -0.836885 -0.641043 
-0.650418 -0.813476 -0.647773 
-0.653294 -0.8194 -0.649901 
-0.656285 -0.824692 -0.651626 
-0.659391 -0.82958 -0.653122 
-0.662554 -0.834182 -0.654445 
-0.665718 -0.83861 -0.655652 
-0.669859 -0.843614 -0.656918 
-0.674978 -0.848733 -0.657895 
-0.680442 -0.852817 -0.658241 
-0.686193 -0.855865 -0.658068 
-0.692347 -0.857706 -0.65709 
-0.699019 -0.857878 -0.655192 
-0.705001 -0.856785 -0.652777 
-0.710235 -0.854542 -0.650073 
-0.715987 -0.851149 -0.64668 
-0.722313 -0.846087 -0.642194 
-0.728928 -0.840336 -0.637247 
-0.735714 -0.834354 -0.632128 
-0.656112 -0.833261 -0.650073 
-0.659448 -0.838208 -0.651511 
-0.662669 -0.842406 -0.652662 
-0.666868 -0.847065 -0.653697 
-0.672159 -0.851782 -0.654445 
-0.677681 -0.855578 -0.654675 
-0.68349 -0.858396 -0.654272 
-0.689702 -0.859949 -0.653179 
-0.696431 -0.860121 -0.651224 
-0.702298 -0.859086 -0.648923 
-0.707474 -0.857073 -0.646335 
-0.713053 -0.854082 -0.643171 
-0.71915 -0.849711 -0.639145 
-0.725477 -0.844822 -0.634717 
-0.731976 -0.839416 -0.629943 
-0.738475 -0.834354 -0.625399 
-0.743364 -0.830443 -0.621948 
-0.747333 -0.827682 -0.61936 
-0.752049 -0.824346 -0.616254 
-0.659333 -0.844189 -0.649383 
-0.663417 -0.849366 -0.650763 
-0.666925 -0.852587 -0.651339 
-0.671412 -0.856038 -0.651626 
-0.677106 -0.859259 -0.651511 
-0.683145 -0.861387 -0.650763 
-0.688494 -0.862192 -0.649498 
-0.692923 -0.862307 -0.648233 
-0.697581 -0.861789 -0.646565 
-0.70247 -0.860351 -0.644379 
-0.707762 -0.858166 -0.641676 
-0.713398 -0.854945 -0.63834 
-0.719495 -0.850631 -0.634256 
-0.725764 -0.845742 -0.629885 
-0.731976 -0.841371 -0.625744 
-0.73675 -0.837805 -0.622466 
-0.663014 -0.853967 -0.648808 
-0.66658 -0.856843 -0.649153 
-0.670261 -0.859489 -0.649383 
-0.674115 -0.861387 -0.649153 
-0.678084 -0.862882 -0.648693 
-0.682167 -0.86409 -0.64806 
-0.686481 -0.864608 -0.647025 
-0.690967 -0.864493 -0.645587 
-0.695683 -0.863802 -0.643804 
-0.700572 -0.862422 -0.641618 
-0.705806 -0.860236 -0.638915 
-0.70989 -0.858223 -0.636672 
-0.712766 -0.856498 -0.634947 
-0.715756 -0.854542 -0.633049 
-0.718747 -0.852529 -0.631093 
-0.721796 -0.850286 -0.629022 
-0.724901 -0.848043 -0.626952 
-0.72795 -0.845915 -0.624939 
-0.730998 -0.843902 -0.622983 
-0.733989 -0.841946 -0.621028 
-0.737095 -0.839818 -0.619015 
-0.740258 -0.83746 -0.616829 
-0.743364 -0.835332 -0.614816 
-0.74716 -0.833031 -0.612515 
-0.659218 -0.855405 -0.646737 
-0.662784 -0.858396 -0.64714 
-0.666408 -0.861099 -0.64737 
-0.670204 -0.863285 -0.647313 
-0.674115 -0.864895 -0.646967 
-0.678199 -0.866103 -0.646335 
-0.68257 -0.866391 -0.645127 
-0.686999 -0.866563 -0.643862 
-0.6916 -0.866103 -0.642251 
-0.696374 -0.865125 -0.640296 
-0.701435 -0.863342 -0.637822 
-0.705461 -0.861502 -0.635694 
-0.708222 -0.860006 -0.634141 
-0.71104 -0.858396 -0.632473 
-0.713916 -0.856555 -0.630633 
-0.716907 -0.854657 -0.628792 
-0.71984 -0.852702 -0.626894 
-0.722888 -0.850689 -0.624939 
-0.725879 -0.848676 -0.622983 
-0.72887 -0.846663 -0.621028 
-0.731918 -0.844765 -0.61913 
-0.734909 -0.842867 -0.617232 
-0.737958 -0.840911 -0.615276 
-0.741006 -0.838898 -0.613321 
-0.743997 -0.837057 -0.611538 
-0.747735 -0.834929 -0.609352 
-0.658758 -0.859891 -0.645069 
-0.662382 -0.86271 -0.645415 
-0.66612 -0.865068 -0.645472 
-0.669974 -0.866851 -0.645184 
-0.674 -0.868116 -0.644552 
-0.678199 -0.868921 -0.643689 
-0.68257 -0.869209 -0.642539 
-0.687171 -0.868806 -0.640928 
-0.691887 -0.868059 -0.639145 
-0.696834 -0.866563 -0.636902 
-0.701953 -0.864665 -0.634371 
-0.705979 -0.86271 -0.632128 
-0.708797 -0.861214 -0.630575 
-0.711615 -0.859604 -0.628907 
-0.714549 -0.857821 -0.627067 
-0.717482 -0.855865 -0.625226 
-0.72053 -0.853737 -0.623213 
-0.723464 -0.851839 -0.621373 
-0.726339 -0.850229 -0.619647 
-0.729273 -0.848503 -0.617864 
-0.732206 -0.84672 -0.616024 
-0.735254 -0.844822 -0.614126 
-0.738245 -0.842867 -0.612228 
-0.741236 -0.841141 -0.610445 
-0.744227 -0.839358 -0.608662 
-0.657953 -0.863917 -0.643056 
-0.662037 -0.866908 -0.643344 
-0.665775 -0.869209 -0.643344 
-0.669744 -0.870819 -0.642999 
-0.673885 -0.871682 -0.642136 
-0.678199 -0.872142 -0.641043 
-0.682685 -0.872027 -0.639663 
-0.687344 -0.871394 -0.637937 
-0.692117 -0.870474 -0.635982 
-0.697121 -0.868806 -0.633681 
-0.702298 -0.866621 -0.630978 
-0.707819 -0.863687 -0.627872 
-0.712018 -0.861387 -0.625341 
-0.714951 -0.859604 -0.623616 
-0.717827 -0.857763 -0.621775 
-0.72076 -0.856038 -0.619993 
-0.723694 -0.854255 -0.61821 
-0.726569 -0.852529 -0.616427 
-0.729503 -0.850746 -0.614644 
-0.732436 -0.849078 -0.612918 
-0.735369 -0.847468 -0.611193 
-0.738245 -0.8458 -0.60941 
-0.741178 -0.844189 -0.607684 
-0.744169 -0.842464 -0.605959 
-0.74716 -0.840681 -0.604176 
-0.656285 -0.868404 -0.641101 
-0.660024 -0.870704 -0.641158 
-0.66382 -0.872717 -0.640986 
-0.667788 -0.874213 -0.640526 
-0.671987 -0.874845 -0.639605 
-0.676358 -0.875133 -0.638398 
-0.680844 -0.875018 -0.63696 
-0.685561 -0.87427 -0.635177 
-0.690334 -0.873235 -0.633221 
-0.695453 -0.871337 -0.63069 
-0.70063 -0.869151 -0.628045 
-0.705979 -0.866563 -0.625054 
-0.711615 -0.863457 -0.621833 
-0.717309 -0.860121 -0.618382 
-0.723061 -0.856958 -0.615046 
-0.728755 -0.853737 -0.611653 
-0.734564 -0.850459 -0.608202 
-0.740373 -0.847353 -0.604808 
-0.746182 -0.844362 -0.60153 
-0.751186 -0.841946 -0.598827 
-0.644092 -0.863745 -0.63719 
-0.649268 -0.868864 -0.638225 
-0.655537 -0.873638 -0.638743 
-0.661289 -0.876513 -0.638455 
-0.667558 -0.877836 -0.63719 
-0.674 -0.878296 -0.635464 
-0.679752 -0.877721 -0.633451 
-0.68441 -0.876974 -0.631611 
-0.689414 -0.875478 -0.629368 
-0.694476 -0.87358 -0.626837 
-0.699652 -0.871279 -0.624076 
-0.705174 -0.868346 -0.62097 
-0.71058 -0.865815 -0.618037 
-0.716217 -0.862652 -0.614701 
-0.721853 -0.859661 -0.611423 
-0.727605 -0.856498 -0.608087 
-0.733356 -0.853277 -0.604636 
-0.738993 -0.850574 -0.60153 
-0.744629 -0.847986 -0.598482 
-0.749576 -0.845742 -0.595893 
-0.753659 -0.844132 -0.593823 
-0.643171 -0.870532 -0.635062 
-0.648405 -0.875018 -0.635752 
-0.653984 -0.878526 -0.635867 
-0.659909 -0.880942 -0.635234 
-0.666235 -0.88169 -0.633681 
-0.672965 -0.881402 -0.631496 
-0.678716 -0.880712 -0.629368 
-0.683548 -0.879447 -0.62724 
-0.688494 -0.877951 -0.624996 
-0.693613 -0.876053 -0.622466 
-0.698789 -0.87381 -0.619762 
-0.704138 -0.871222 -0.616772 
-0.709602 -0.868404 -0.613666 
-0.715181 -0.86547 -0.610445 
-0.72076 -0.862652 -0.607339 
-0.726339 -0.859834 -0.604176 
-0.731861 -0.857246 -0.601185 
-0.737497 -0.854657 -0.598079 
-0.743019 -0.852242 -0.595203 
-0.750611 -0.849193 -0.591292 
-0.640698 -0.876111 -0.632301 
-0.64599 -0.880424 -0.632934 
-0.651626 -0.883588 -0.632761 
-0.657723 -0.885141 -0.631668 
-0.66428 -0.885428 -0.629828 
-0.671009 -0.884911 -0.62747 
-0.678026 -0.883645 -0.624709 
-0.684065 -0.882035 -0.622006 
-0.689127 -0.880194 -0.619532 
-0.694303 -0.878181 -0.616887 
-0.699422 -0.875996 -0.614241 
-0.704771 -0.873408 -0.61125 
-0.710235 -0.870819 -0.608259 
-0.715699 -0.868174 -0.605268 
-0.721163 -0.865643 -0.602278 
-0.7268 -0.862825 -0.599114 
-0.732264 -0.860351 -0.596123 
-0.73767 -0.858338 -0.593478 
-0.743019 -0.856383 -0.590832 
-0.748483 -0.854312 -0.588071 
-0.755385 -0.852414 -0.584965 
-0.762287 -0.850516 -0.581917 
-0.637247 -0.880942 -0.62908 
-0.642596 -0.884853 -0.629483 
-0.648463 -0.887384 -0.628907 
-0.654617 -0.888649 -0.6277 
-0.661001 -0.889167 -0.625974 
-0.667788 -0.888534 -0.623559 
-0.674805 -0.887154 -0.620683 
-0.682052 -0.885313 -0.617519 
-0.689644 -0.88261 -0.613781 
-0.695913 -0.880309 -0.610675 
-0.70109 -0.878124 -0.607972 
-0.706439 -0.875766 -0.605153 
-0.711903 -0.87312 -0.602105 
-0.717309 -0.870647 -0.599172 
-0.722601 -0.868576 -0.596469 
-0.728065 -0.866276 -0.593593 
-0.733414 -0.864263 -0.590947 
-0.740028 -0.862019 -0.587784 
-0.74693 -0.860006 -0.58462 
-0.75412 -0.857936 -0.581399 
-0.760906 -0.85644 -0.578524 
-0.76614 -0.855175 -0.576223 
-0.632991 -0.884853 -0.625341 
-0.639433 -0.888822 -0.625399 
-0.647313 -0.891583 -0.624364 
-0.65479 -0.892215 -0.622408 
-0.661404 -0.891928 -0.620165 
-0.668248 -0.891065 -0.617577 
-0.675323 -0.889627 -0.614701 
-0.68257 -0.887614 -0.611423 
-0.690047 -0.885198 -0.607857 
-0.697696 -0.882207 -0.604003 
-0.705519 -0.879044 -0.599919 
-0.713456 -0.875766 -0.595836 
-0.721335 -0.87289 -0.591925 
-0.729273 -0.869957 -0.587956 
-0.737095 -0.867598 -0.584333 
-0.744802 -0.865643 -0.581054 
-0.752337 -0.864205 -0.578006 
-0.758778 -0.862825 -0.57536 
-0.625917 -0.886694 -0.620798 
-0.633221 -0.891583 -0.621143 
-0.641101 -0.894343 -0.620108 
-0.649556 -0.895149 -0.617864 
-0.657263 -0.894803 -0.615334 
-0.66405 -0.894113 -0.612861 
-0.671067 -0.892675 -0.609927 
-0.678199 -0.891065 -0.606879 
-0.685561 -0.888879 -0.603485 
-0.693038 -0.886349 -0.599862 
-0.700802 -0.883243 -0.595893 
-0.708567 -0.880367 -0.59204 
-0.716217 -0.877894 -0.588359 
-0.723866 -0.875823 -0.584965 
-0.731458 -0.873925 -0.581687 
-0.73905 -0.872085 -0.578408 
-0.746527 -0.870819 -0.575418 
-0.751531 -0.870014 -0.57352 
-0.617979 -0.889857 -0.616599 
-0.625456 -0.893998 -0.616484 
-0.633336 -0.896701 -0.615391 
-0.641618 -0.897852 -0.613436 
-0.650361 -0.897564 -0.610502 
-0.659448 -0.896356 -0.607051 
-0.667616 -0.894803 -0.603715 
-0.674748 -0.893135 -0.600667 
-0.682052 -0.891065 -0.597274 
-0.689587 -0.888247 -0.593478 
-0.697294 -0.885256 -0.589567 
-0.704771 -0.883128 -0.586173 
-0.712018 -0.881805 -0.58324 
-0.719322 -0.880597 -0.580364 
-0.726627 -0.879332 -0.577488 
-0.734047 -0.878124 -0.574612 
-0.740143 -0.877261 -0.572254 
-0.608432 -0.891755 -0.611423 
-0.617002 -0.895954 -0.611078 
-0.626837 -0.899117 -0.60964 
-0.636212 -0.900095 -0.607224 
-0.645069 -0.899405 -0.604061 
-0.654214 -0.897909 -0.60038 
-0.663532 -0.895954 -0.596469 
-0.671929 -0.893768 -0.592672 
-0.679406 -0.891007 -0.588934 
-0.687114 -0.887729 -0.584793 
-0.695798 -0.885026 -0.580709 
-0.705289 -0.88376 -0.577143 
-0.714491 -0.883473 -0.574152 
-0.723694 -0.883415 -0.571277 
-0.731861 -0.883013 -0.568573 
-0.739453 -0.88284 -0.566158 
-0.601357 -0.894976 -0.605614 
-0.61102 -0.89883 -0.604693 
-0.621085 -0.901073 -0.602738 
-0.630518 -0.90182 -0.600207 
-0.639433 -0.900785 -0.596871 
-0.648635 -0.898887 -0.592903 
-0.658241 -0.895896 -0.588301 
-0.666925 -0.892733 -0.58393 
-0.67492 -0.888477 -0.579214 
-0.68303 -0.883818 -0.57421 
-0.691657 -0.881345 -0.570241 
-0.701665 -0.88192 -0.567481 
-0.712363 -0.88399 -0.565237 
-0.723061 -0.886004 -0.562994 
-0.732839 -0.887499 -0.560809 
-0.738533 -0.887787 -0.559198 
-0.592787 -0.897794 -0.599459 
-0.602508 -0.901245 -0.598252 
-0.61263 -0.902971 -0.596066 
-0.623156 -0.903603 -0.593133 
-0.633164 -0.902223 -0.589222 
-0.642769 -0.898887 -0.58439 
-0.651454 -0.895206 -0.579674 
-0.656688 -0.892445 -0.576511 
-0.661922 -0.882438 -0.569551 
-0.669744 -0.86409 -0.557243 
-0.677623 -0.860466 -0.552929 
-0.686538 -0.868174 -0.554309 
-0.695683 -0.874845 -0.555057 
-0.705116 -0.880712 -0.555287 
-0.714836 -0.885543 -0.554885 
-0.725247 -0.888707 -0.553332 
-0.733644 -0.890777 -0.551836 
-0.587899 -0.90182 -0.59204 
-0.597734 -0.904524 -0.590429 
-0.607914 -0.906134 -0.588129 
-0.61867 -0.905559 -0.584448 
-0.629425 -0.901705 -0.579041 
-0.63719 -0.897162 -0.574095 
-0.670434 -0.840739 -0.532913 
-0.676991 -0.853162 -0.537687 
-0.683317 -0.862077 -0.540678 
-0.691082 -0.869784 -0.542404 
-0.698214 -0.874098 -0.542576 
-0.70966 -0.880655 -0.542576 
-0.728985 -0.891813 -0.542576 
-0.736175 -0.894976 -0.542058 
-0.597561 -0.90809 -0.580882 
-0.608489 -0.906652 -0.576683 
-0.617864 -0.903431 -0.571967 
-0.751646 -0.902511 -0.52952 
-0.757858 -0.904466 -0.5286 
-0.580249 -0.914992 -0.578466 
-0.757398 -0.905271 -0.517327 
-0.569206 -0.916142 -0.571334 
-0.577143 -0.917752 -0.569666 
-0.534006 -0.895436 -0.560233 
-0.542116 -0.903948 -0.562419 
-0.556207 -0.915222 -0.564145 
-0.56541 -0.918442 -0.562937 
-0.575533 -0.91804 -0.559486 
-0.527507 -0.897162 -0.552871 
-0.534064 -0.905789 -0.555517 
-0.542116 -0.911828 -0.556265 
-0.551203 -0.917235 -0.556322 
-0.561039 -0.919133 -0.554194 
-0.570644 -0.917637 -0.550283 
-0.520087 -0.898369 -0.545912 
-0.526702 -0.907054 -0.548558 
-0.534639 -0.913554 -0.549593 
-0.544129 -0.91689 -0.548328 
-0.554194 -0.917695 -0.545509 
-0.682915 -0.800132 -0.43807 
-0.683835 -0.817157 -0.447157 
-0.76315 -0.859029 -0.444857 
-0.512495 -0.897794 -0.538665 
-0.518247 -0.905846 -0.541253 
-0.525954 -0.913784 -0.543151 
-0.535329 -0.917752 -0.542231 
-0.545337 -0.918557 -0.539413 
-0.555115 -0.915567 -0.534466 
-0.562304 -0.91085 -0.529463 
-0.684525 -0.792425 -0.423116 
-0.686078 -0.803468 -0.428752 
-0.688034 -0.813073 -0.433526 
-0.690219 -0.821528 -0.437495 
-0.692635 -0.830156 -0.441463 
-0.697006 -0.840911 -0.446007 
-0.703391 -0.849423 -0.448653 
-0.713513 -0.856325 -0.449228 
-0.722888 -0.860927 -0.448825 
-0.733414 -0.862192 -0.446064 
-0.739453 -0.858568 -0.442096 
-0.74808 -0.848791 -0.433756 
-0.755097 -0.843499 -0.428465 
-0.760331 -0.839243 -0.424381 
-0.510942 -0.905156 -0.534811 
-0.516809 -0.912231 -0.536767 
-0.524861 -0.918097 -0.5374 
-0.533546 -0.920283 -0.535732 
-0.541771 -0.919708 -0.532683 
-0.549478 -0.91689 -0.528542 
-0.555402 -0.912921 -0.524286 
-0.68303 -0.779139 -0.407011 
-0.684813 -0.789952 -0.412475 
-0.686883 -0.799442 -0.417191 
-0.689932 -0.809392 -0.421735 
-0.693095 -0.818882 -0.425991 
-0.696086 -0.828488 -0.430363 
-0.701377 -0.838208 -0.433986 
-0.70874 -0.84488 -0.435309 
-0.717079 -0.848446 -0.434561 
-0.726397 -0.849078 -0.431858 
-0.735139 -0.847986 -0.42835 
-0.743422 -0.84511 -0.424036 
-0.750784 -0.841429 -0.41955 
-0.755788 -0.837748 -0.415811 
-0.504788 -0.904294 -0.529002 
-0.509792 -0.91085 -0.530958 
-0.515831 -0.91689 -0.532281 
-0.523251 -0.920628 -0.531878 
-0.53113 -0.921548 -0.52975 
-0.538435 -0.920513 -0.526759 
-0.545049 -0.91781 -0.523021 
-0.549708 -0.914761 -0.519685 
-0.684468 -0.79024 -0.404826 
-0.686999 -0.798349 -0.408564 
-0.689759 -0.805424 -0.411612 
-0.69252 -0.812326 -0.414546 
-0.695223 -0.819228 -0.417537 
-0.698559 -0.827855 -0.421275 
-0.704311 -0.836195 -0.423978 
-0.712075 -0.841544 -0.424381 
-0.720875 -0.844074 -0.422886 
-0.72933 -0.843844 -0.419952 
-0.73721 -0.842061 -0.416329 
-0.745607 -0.838898 -0.411727 
-0.753429 -0.834009 -0.406494 
-0.500359 -0.904236 -0.523941 
-0.505363 -0.911138 -0.526069 
-0.510482 -0.91689 -0.527507 
-0.516809 -0.921146 -0.527795 
-0.524516 -0.922929 -0.526184 
-0.531648 -0.922699 -0.523653 
-0.53809 -0.920801 -0.520433 
-0.543841 -0.917177 -0.516406 
-0.547465 -0.914244 -0.513473 
-0.688897 -0.803123 -0.403675 
-0.69275 -0.810715 -0.406666 
-0.695683 -0.816984 -0.409197 
-0.698502 -0.823541 -0.411958 
-0.702413 -0.830156 -0.414316 
-0.708855 -0.83631 -0.415581 
-0.716217 -0.839588 -0.414948 
-0.723176 -0.840336 -0.41305 
-0.730481 -0.840106 -0.410462 
-0.73859 -0.837805 -0.406494 
-0.745665 -0.834872 -0.402467 
-0.750381 -0.831939 -0.399247 
-0.497081 -0.904294 -0.519455 
-0.501222 -0.910448 -0.521468 
-0.506284 -0.916659 -0.523193 
-0.512553 -0.921318 -0.523596 
-0.520202 -0.923791 -0.522388 
-0.527219 -0.924137 -0.52026 
-0.533546 -0.922871 -0.517384 
-0.539183 -0.919708 -0.513646 
-0.542691 -0.917062 -0.510885 
-0.694418 -0.812843 -0.401202 
-0.697466 -0.818767 -0.403503 
-0.701493 -0.825382 -0.405861 
-0.706841 -0.831536 -0.407529 
-0.712766 -0.835447 -0.407644 
-0.719495 -0.837057 -0.406263 
-0.726684 -0.837173 -0.403963 
-0.734449 -0.83585 -0.400569 
-0.742616 -0.833434 -0.396486 
-0.750208 -0.82935 -0.391597 
-0.495413 -0.907687 -0.516694 
-0.500474 -0.914416 -0.518707 
-0.505708 -0.919765 -0.519857 
-0.51215 -0.923274 -0.519627 
-0.518937 -0.924769 -0.518132 
-0.525091 -0.924597 -0.515946 
-0.531418 -0.923044 -0.512898 
-0.537112 -0.919593 -0.508987 
-0.699997 -0.822679 -0.399131 
-0.705576 -0.828027 -0.400224 
-0.711558 -0.832284 -0.400569 
-0.718057 -0.834527 -0.399592 
-0.725132 -0.835044 -0.397521 
-0.732781 -0.834124 -0.394358 
-0.7379 -0.833549 -0.392287 
-0.491905 -0.907917 -0.512898 
-0.496103 -0.913611 -0.514623 
-0.50128 -0.91942 -0.516061 
-0.506744 -0.923101 -0.516234 
-0.512495 -0.924942 -0.515256 
-0.518477 -0.925517 -0.513531 
-0.524689 -0.924712 -0.510942 
-0.530095 -0.922411 -0.507779 
-0.534696 -0.919305 -0.504386 
-0.676473 -0.770799 -0.372444 
-0.678774 -0.780462 -0.377103 
-0.682455 -0.791735 -0.382107 
-0.688379 -0.803066 -0.38642 
-0.696374 -0.81733 -0.391654 
-0.703563 -0.825957 -0.394013 
-0.709717 -0.82958 -0.393955 
-0.716217 -0.832111 -0.39315 
-0.721853 -0.833491 -0.391942 
-0.488569 -0.907802 -0.508527 
-0.491962 -0.912576 -0.51008 
-0.496218 -0.918097 -0.51169 
-0.50151 -0.922871 -0.512495 
-0.507204 -0.925287 -0.511863 
-0.513128 -0.92615 -0.51031 
-0.519167 -0.92592 -0.508067 
-0.525551 -0.924137 -0.504788 
-0.531245 -0.920743 -0.500877 
-0.673425 -0.766658 -0.365255 
-0.676531 -0.77494 -0.368821 
-0.678774 -0.784718 -0.373537 
-0.681534 -0.792655 -0.377045 
-0.68464 -0.798982 -0.379461 
-0.688034 -0.804388 -0.381359 
-0.694361 -0.811923 -0.383372 
-0.703448 -0.822391 -0.386075 
-0.710868 -0.830156 -0.387858 
-0.715066 -0.832226 -0.387513 
-0.724844 -0.830616 -0.383257 
-0.486153 -0.91016 -0.505133 
-0.489489 -0.915164 -0.506744 
-0.493803 -0.920398 -0.508182 
-0.499267 -0.924367 -0.508469 
-0.505018 -0.926437 -0.507664 
-0.510942 -0.927185 -0.505996 
-0.517097 -0.92638 -0.503408 
-0.522446 -0.924712 -0.500532 
-0.526932 -0.921893 -0.497311 
-0.670779 -0.769419 -0.361631 
-0.674115 -0.7754 -0.363759 
-0.677221 -0.782417 -0.366635 
-0.680097 -0.790009 -0.369913 
-0.682915 -0.797429 -0.373134 
-0.686021 -0.803871 -0.375607 
-0.689357 -0.809277 -0.377506 
-0.693785 -0.815201 -0.379289 
-0.741351 -0.828143 -0.369913 
-0.484773 -0.914359 -0.502085 
-0.488224 -0.918673 -0.503293 
-0.492595 -0.923331 -0.504328 
-0.498231 -0.926322 -0.504098 
-0.50404 -0.927933 -0.503005 
-0.51008 -0.927933 -0.500877 
-0.516349 -0.92661 -0.497829 
-0.521928 -0.923676 -0.494205 
-0.525436 -0.920801 -0.491272 
-0.669111 -0.773617 -0.358238 
-0.672504 -0.779484 -0.360366 
-0.675898 -0.785293 -0.362436 
-0.679234 -0.79116 -0.364564 
-0.68257 -0.797026 -0.366693 
-0.685561 -0.803756 -0.369453 
-0.688781 -0.80991 -0.371754 
-0.69229 -0.814684 -0.373249 
-0.696891 -0.819745 -0.3744 
-0.702758 -0.824864 -0.375262 
-0.711615 -0.827797 -0.373824 
-0.723234 -0.829868 -0.370891 
-0.731516 -0.830731 -0.368476 
-0.737152 -0.828718 -0.36537 
-0.479769 -0.912231 -0.496506 
-0.483392 -0.91758 -0.498289 
-0.487706 -0.922699 -0.499612 
-0.49317 -0.92684 -0.500072 
-0.498979 -0.928795 -0.499152 
-0.504903 -0.929313 -0.497369 
-0.511115 -0.928393 -0.494608 
-0.516464 -0.92661 -0.491675 
-0.521065 -0.923504 -0.488224 
-0.670894 -0.782647 -0.356167 
-0.674403 -0.788111 -0.358008 
-0.677969 -0.793115 -0.359618 
-0.681592 -0.797947 -0.361113 
-0.684985 -0.803411 -0.362954 
-0.688379 -0.808817 -0.364794 
-0.691945 -0.813533 -0.366232 
-0.696546 -0.81871 -0.367555 
-0.70224 -0.824346 -0.368706 
-0.708509 -0.827855 -0.368476 
-0.715411 -0.829523 -0.36698 
-0.722543 -0.830271 -0.36491 
-0.728928 -0.829465 -0.362206 
-0.734794 -0.82659 -0.358525 
-0.739798 -0.822679 -0.354614 
-0.475167 -0.912461 -0.49179 
-0.478561 -0.917407 -0.4934 
-0.482012 -0.921893 -0.49478 
-0.486441 -0.92638 -0.495758 
-0.492077 -0.929083 -0.495356 
-0.497944 -0.930348 -0.493975 
-0.50404 -0.930233 -0.491732 
-0.510367 -0.92845 -0.488454 
-0.515889 -0.925517 -0.48483 
-0.519455 -0.922526 -0.481782 
-0.674633 -0.794323 -0.354614 
-0.679234 -0.800075 -0.356282 
-0.683835 -0.805654 -0.357835 
-0.688379 -0.811348 -0.359446 
-0.694015 -0.81733 -0.360883 
-0.699997 -0.822103 -0.361459 
-0.706209 -0.825957 -0.361401 
-0.712823 -0.828488 -0.360538 
-0.719668 -0.830213 -0.359043 
-0.726109 -0.82935 -0.35634 
-0.732148 -0.82682 -0.352831 
-0.738935 -0.822161 -0.34777 
-0.473902 -0.918097 -0.489201 
-0.478216 -0.923906 -0.490984 
-0.483622 -0.928565 -0.491732 
-0.489374 -0.930463 -0.490812 
-0.495298 -0.931441 -0.489316 
-0.501395 -0.930923 -0.486843 
-0.506686 -0.92914 -0.48391 
-0.511172 -0.926437 -0.480689 
-0.514681 -0.923619 -0.477871 
-0.673367 -0.798004 -0.350473 
-0.676991 -0.802778 -0.351911 
-0.681592 -0.808357 -0.353521 
-0.687171 -0.814569 -0.355074 
-0.693038 -0.81986 -0.355995 
-0.699077 -0.824404 -0.356455 
-0.705346 -0.828085 -0.356282 
-0.712018 -0.830271 -0.355189 
-0.71915 -0.831306 -0.353291 
-0.725534 -0.830673 -0.350646 
-0.730538 -0.828488 -0.347655 
-0.470796 -0.919133 -0.485233 
-0.474247 -0.924079 -0.486843 
-0.478676 -0.928393 -0.487763 
-0.48437 -0.931038 -0.487303 
-0.490237 -0.932304 -0.48598 
-0.496276 -0.932361 -0.48391 
-0.50151 -0.930981 -0.481264 
-0.505881 -0.92868 -0.478331 
-0.51054 -0.924769 -0.474362 
-0.675438 -0.805309 -0.348 
-0.679291 -0.809335 -0.34892 
-0.68303 -0.813476 -0.349955 
-0.686826 -0.817387 -0.350876 
-0.69068 -0.821126 -0.351681 
-0.695568 -0.825439 -0.352371 
-0.70178 -0.829235 -0.352314 
-0.708337 -0.831881 -0.351508 
-0.715296 -0.833319 -0.349898 
-0.721451 -0.833434 -0.347827 
-0.727547 -0.831593 -0.344606 
-0.469013 -0.921088 -0.482127 
-0.472522 -0.925632 -0.483507 
-0.47603 -0.929313 -0.48437 
-0.480747 -0.931499 -0.483967 
-0.486613 -0.932994 -0.482817 
-0.49156 -0.933512 -0.481379 
-0.495643 -0.932936 -0.479654 
-0.499842 -0.931671 -0.477411 
-0.504271 -0.929255 -0.47442 
-0.507721 -0.92638 -0.471429 
-0.679349 -0.812441 -0.345699 
-0.683145 -0.816524 -0.346735 
-0.686941 -0.820263 -0.34754 
-0.690795 -0.823944 -0.34823 
-0.694763 -0.827165 -0.34869 
-0.698847 -0.829926 -0.348863 
-0.703103 -0.832169 -0.348633 
-0.707532 -0.833779 -0.348 
-0.712018 -0.835044 -0.347137 
-0.716792 -0.835677 -0.345814 
-0.721853 -0.835217 -0.343744 
-0.727432 -0.833261 -0.340695 
-0.465102 -0.919765 -0.478273 
-0.468553 -0.924539 -0.479826 
-0.472004 -0.928795 -0.481034 
-0.475685 -0.931441 -0.481264 
-0.479539 -0.932764 -0.480689 
-0.483392 -0.933684 -0.479884 
-0.487418 -0.933914 -0.478676 
-0.491444 -0.933684 -0.477123 
-0.495586 -0.932936 -0.475225 
-0.499899 -0.931038 -0.472579 
-0.504443 -0.92776 -0.469013 
-0.68464 -0.820665 -0.343916 
-0.688609 -0.824001 -0.344434 
-0.692405 -0.827682 -0.345239 
-0.696431 -0.830616 -0.345527 
-0.700687 -0.832916 -0.345354 
-0.705116 -0.834584 -0.344721 
-0.70966 -0.835735 -0.343744 
-0.714319 -0.836482 -0.342536 
-0.719265 -0.836597 -0.340925 
-0.464067 -0.923331 -0.475743 
-0.467518 -0.927875 -0.477181 
-0.471947 -0.932131 -0.478043 
-0.477698 -0.934317 -0.477353 
-0.483565 -0.935295 -0.475858 
-0.488684 -0.934719 -0.473787 
-0.492825 -0.933742 -0.471717 
-0.497081 -0.932189 -0.469301 
-0.501625 -0.92891 -0.465735 
-0.695511 -0.832456 -0.341673 
-0.69971 -0.834757 -0.341443 
-0.704081 -0.83654 -0.340925 
-0.708682 -0.837518 -0.33989 
-0.713398 -0.838265 -0.338625 
-0.460846 -0.923906 -0.471832 
-0.464239 -0.928795 -0.473442 
-0.468726 -0.933052 -0.474305 
-0.474362 -0.935525 -0.473787 
-0.480286 -0.936502 -0.472292 
-0.486383 -0.935927 -0.469819 
-0.49156 -0.93495 -0.46746 
-0.495873 -0.932879 -0.4647 
-0.499267 -0.930406 -0.461996 
-0.457453 -0.925172 -0.468266 
-0.460904 -0.929543 -0.469588 
-0.46539 -0.934029 -0.470624 
-0.471084 -0.936272 -0.469934 
-0.47695 -0.93725 -0.468496 
-0.48299 -0.93679 -0.46608 
-0.488224 -0.935467 -0.463492 
-0.49248 -0.933684 -0.460904 
-0.495873 -0.931211 -0.458258 
-0.699019 -0.82981 -0.326949 
-0.454347 -0.925689 -0.46493 
-0.457798 -0.930233 -0.466368 
-0.462169 -0.934719 -0.467403 
-0.467863 -0.937135 -0.46677 
-0.47373 -0.93817 -0.465332 
-0.479826 -0.93748 -0.462802 
-0.485003 -0.93633 -0.460328 
-0.489316 -0.934432 -0.457683 
-0.492652 -0.932419 -0.455324 
-0.452966 -0.927012 -0.461766 
-0.456417 -0.931441 -0.463089 
-0.460904 -0.935525 -0.463894 
-0.466598 -0.937883 -0.463262 
-0.472522 -0.938285 -0.461421 
-0.477583 -0.937825 -0.459408 
-0.481724 -0.936963 -0.457453 
-0.48598 -0.93541 -0.455037 
-0.490409 -0.932764 -0.451931 
-0.449688 -0.926552 -0.457855 
-0.453139 -0.931269 -0.459351 
-0.457568 -0.935755 -0.460386 
-0.463204 -0.9384 -0.459983 
-0.469071 -0.939263 -0.45843 
-0.475167 -0.938458 -0.455842 
