ply
format ascii 1.0
comment VCGLIB generated
element vertex 1654
property float x
property float y
property float z
element face 0
property list uchar int vertex_indices
end_header
-0.649096 0.101212 0.481678 
-0.648277 0.318622 0.481814 
-0.64705 0.41166 0.482631 
-0.639834 0.318485 0.482087 
-0.638877 0.477728 0.480724 
-0.631523 0.473096 0.479635 
-0.628526 0.483177 0.479363 
-0.624032 0.108023 0.479225 
-0.619534 0.334696 0.479089 
-0.618308 0.159515 0.483858 
-0.617493 0.158289 0.482223 
-0.61218 0.374336 0.478409 
-0.604552 0.542024 0.479635 
-0.602918 0.547337 0.481133 
-0.598013 0.535758 0.478545 
-0.592018 0.497888 0.479225 
-0.58412 0.193843 0.483721 
-0.575809 0.191663 0.482631 
-0.575535 0.195477 0.483313 
-0.574853 0.1918 0.480452 
-0.570767 0.0499933 0.481406 
-0.570497 0.0441353 0.482495 
-0.56927 0.11429 0.483449 
-0.567092 0.197929 0.482495 
-0.566955 0.193298 0.482223 
-0.566273 0.186078 0.478545 
-0.553195 0.118376 0.483994 
-0.552243 0.131454 0.482495 
-0.551968 0.112383 0.482631 
-0.551291 0.109794 0.481814 
-0.532762 0.213867 0.481542 
-0.531399 0.215638 0.478545 
-0.525134 0.209508 0.483449 
-0.696911 0.285928 0.489715 
-0.683833 0.311538 0.485629 
-0.678657 0.293966 0.487536 
-0.675523 0.314262 0.487399 
-0.668983 0.390274 0.48917 
-0.668302 0.310312 0.48917 
-0.666668 0.495437 0.484266 
-0.66626 0.316442 0.484538 
-0.665304 0.0760113 0.484947 
-0.66476 0.504019 0.484538 
-0.662719 0.481406 0.485629 
-0.659992 0.0878628 0.489443 
-0.659992 0.30677 0.488352 
-0.659584 0.0756028 0.48917 
-0.659584 0.306362 0.486037 
-0.659177 0.0708351 0.489443 
-0.658358 0.402533 0.487944 
-0.657813 0.0724694 0.486718 
-0.657543 0.0682468 0.486854 
-0.657543 0.529219 0.486173 
-0.657406 0.403623 0.484947 
-0.653182 0.515461 0.487263 
-0.652775 0.486718 0.486854 
-0.652093 0.109794 0.487808 
-0.651686 0.106252 0.487399 
-0.651548 0.522681 0.48808 
-0.650867 0.398719 0.489579 
-0.649096 0.318622 0.484402 
-0.64705 0.508923 0.486173 
-0.646643 0.511102 0.488625 
-0.645961 0.483449 0.487808 
-0.644735 0.121237 0.489034 
-0.637651 0.482632 0.488216 
-0.637651 0.48195 0.485492 
-0.636429 0.128729 0.488216 
-0.635747 0.427189 0.486037 
-0.635747 0.305272 0.489307 
-0.634521 0.431957 0.487399 
-0.633976 0.466149 0.487536 
-0.633432 0.498297 0.486309 
-0.631116 0.375698 0.487808 
-0.630297 0.44953 0.487127 
-0.629478 0.341643 0.489443 
-0.629345 0.483585 0.484947 
-0.628389 0.150933 0.489307 
-0.62703 0.149571 0.485765 
-0.623488 0.444898 0.486309 
-0.61613 0.440267 0.488216 
-0.615448 0.441765 0.484947 
-0.610135 0.158834 0.484538 
-0.608231 0.441084 0.488352 
-0.599376 0.441493 0.488761 
-0.598832 0.442855 0.485629 
-0.596924 0.540935 0.486173 
-0.592425 0.35472 0.48522 
-0.587932 0.45348 0.485356 
-0.585753 0.493938 0.489443 
-0.579621 0.382645 0.489443 
-0.579488 0.118921 0.487399 
-0.57894 0.116333 0.486445 
-0.577718 0.390682 0.489579 
-0.573082 0.0435908 0.486309 
-0.564232 0.119194 0.489579 
-0.564095 0.123961 0.489715 
-0.561234 0.194524 0.488489 
-0.561234 0.199155 0.488898 
-0.559871 0.19357 0.484538 
-0.554695 0.114698 0.487672 
-0.553332 0.111565 0.484947 
-0.553332 0.198202 0.489579 
-0.552513 0.194115 0.486718 
-0.550879 0.215365 0.487263 
-0.527042 0.210053 0.487672 
-0.525678 0.211143 0.485084 
-0.489308 0.140172 0.488625 
-0.480045 0.145893 0.486445 
-0.479364 0.152431 0.485901 
-0.698545 0.281569 0.493801 
-0.687237 0.302002 0.493938 
-0.680016 0.290288 0.491214 
-0.679746 0.294238 0.492167 
-0.676886 0.311947 0.490668 
-0.668576 0.0730145 0.492167 
-0.668031 0.064841 0.49203 
-0.667894 0.395041 0.49026 
-0.662856 0.30282 0.494619 
-0.661762 0.303092 0.49203 
-0.661085 0.106934 0.490941 
-0.660673 0.0749216 0.491486 
-0.660673 0.0900421 0.490396 
-0.659314 0.400626 0.494074 
-0.653864 0.118376 0.492167 
-0.653456 0.303773 0.492167 
-0.652908 0.392726 0.49421 
-0.652908 0.30786 0.493257 
-0.6525 0.0693365 0.492303 
-0.652093 0.0777822 0.49026 
-0.650048 0.320801 0.491077 
-0.646506 0.102711 0.493121 
-0.646506 0.0933112 0.493257 
-0.646236 0.0889524 0.493257 
-0.645554 0.484675 0.490532 
-0.644602 0.308133 0.493257 
-0.64419 0.306634 0.491214 
-0.643646 0.490941 0.491622 
-0.642012 0.323662 0.492848 
-0.639289 0.128184 0.494483 
-0.638744 0.141806 0.495028 
-0.637106 0.133633 0.490123 
-0.636836 0.303773 0.492439 
-0.636292 0.490396 0.491758 
-0.632887 0.473096 0.491214 
-0.631523 0.108159 0.495164 
-0.631249 0.14671 0.495164 
-0.630842 0.122599 0.492985 
-0.629752 0.483858 0.490805 
-0.629615 0.344095 0.491077 
-0.623621 0.122463 0.4953 
-0.618582 0.435771 0.495028 
-0.618445 0.314535 0.493938 
-0.615859 0.332925 0.495164 
-0.613407 0.151886 0.491486 
-0.610409 0.314671 0.493801 
-0.610135 0.312219 0.49203 
-0.60673 0.535894 0.493665 
-0.605504 0.53821 0.489987 
-0.599784 0.532489 0.494892 
-0.599784 0.324887 0.492848 
-0.599509 0.119057 0.495164 
-0.598557 0.536711 0.490532 
-0.597875 0.33742 0.493801 
-0.590247 0.121101 0.492575 
-0.590247 0.115652 0.492712 
-0.590247 0.536303 0.493801 
-0.584934 0.498025 0.491077 
-0.580578 0.486174 0.495028 
-0.579077 0.490669 0.490941 
-0.578395 0.549516 0.490396 
-0.57608 0.0399127 0.491894 
-0.574853 0.125187 0.4953 
-0.572538 0.183898 0.494756 
-0.563957 0.191391 0.494074 
-0.555784 0.118785 0.489987 
-0.552924 0.202697 0.489987 
-0.549927 0.138673 0.494074 
-0.549382 0.120419 0.493529 
-0.548563 0.120147 0.491622 
-0.547882 0.119194 0.489851 
-0.492168 0.14385 0.495436 
-0.491353 0.135404 0.492712 
-0.491079 0.14167 0.492167 
-0.482498 0.142487 0.49203 
-0.47487 0.145348 0.492985 
-0.474188 0.152159 0.492439 
-0.467786 0.135132 0.495164 
-0.467104 0.143441 0.493938 
-0.466423 0.133905 0.491486 
-0.466285 0.137992 0.491894 
-0.69255 0.279117 0.499795 
-0.680428 0.102574 0.498297 
-0.680291 0.0973982 0.49857 
-0.674433 0.288244 0.499523 
-0.672388 0.0728783 0.499795 
-0.672255 0.299142 0.498024 
-0.671844 0.0711074 0.498706 
-0.670347 0.39259 0.49925 
-0.669665 0.0604823 0.495981 
-0.666531 0.290968 0.501158 
-0.665171 0.0815964 0.500067 
-0.66449 0.0991691 0.49816 
-0.664078 0.0826861 0.497616 
-0.663671 0.0980789 0.496663 
-0.65904 0.40267 0.496117 
-0.656587 0.507424 0.495709 
-0.655635 0.387686 0.501158 
-0.655635 0.510557 0.497752 
-0.654001 0.391227 0.497343 
-0.649503 0.118785 0.500204 
-0.648821 0.118104 0.49857 
-0.648006 0.0908595 0.49639 
-0.646917 0.30282 0.497479 
-0.645554 0.312083 0.499387 
-0.640241 0.128184 0.496526 
-0.640241 0.13159 0.497071 
-0.639289 0.481133 0.497616 
-0.639152 0.298733 0.499114 
-0.638744 0.298188 0.496935 
-0.636836 0.42896 0.496526 
-0.636154 0.432775 0.498024 
-0.634384 0.328565 0.498978 
-0.633432 0.142487 0.501158 
-0.632613 0.149979 0.500067 
-0.632613 0.13554 0.497752 
-0.629071 0.426373 0.497616 
-0.628526 0.315488 0.501021 
-0.625666 0.143304 0.501021 
-0.625121 0.10993 0.498706 
-0.624577 0.14385 0.498706 
-0.624165 0.160332 0.500341 
-0.624032 0.446942 0.496663 
-0.622943 0.163466 0.497071 
-0.620623 0.430595 0.499387 
-0.618719 0.315488 0.495981 
-0.618308 0.320665 0.496799 
-0.616267 0.125187 0.49639 
-0.612317 0.310312 0.497888 
-0.612043 0.313173 0.499387 
-0.60932 0.440948 0.499387 
-0.608776 0.160332 0.500885 
-0.60673 0.537393 0.499523 
-0.606048 0.5393 0.495845 
-0.599102 0.53426 0.497343 
-0.597331 0.539981 0.498842 
-0.597194 0.308133 0.501158 
-0.592155 0.531944 0.498024 
-0.585616 0.122599 0.500204 
-0.579488 0.490124 0.496663 
-0.573901 0.174908 0.496117 
-0.566273 0.18458 0.498978 
-0.564502 0.195069 0.497071 
-0.557418 0.191255 0.498706 
-0.553195 0.127367 0.500885 
-0.543932 0.122054 0.499114 
-0.543525 0.120147 0.497888 
-0.492579 0.137856 0.495845 
-0.476366 0.152023 0.496663 
-0.476096 0.147664 0.496253 
-0.469012 0.140444 0.497207 
-0.468331 0.1478 0.49639 
-0.462199 0.142624 0.500613 
-0.461654 0.132679 0.498297 
-0.460702 0.14058 0.497207 
-0.71026 0.278028 0.504291 
-0.709033 0.286337 0.503745 
-0.702769 0.274622 0.503337 
-0.700316 0.287563 0.503609 
-0.700041 0.286882 0.50143 
-0.694458 0.280207 0.506334 
-0.693095 0.28225 0.503337 
-0.690098 0.0860918 0.503473 
-0.684648 0.285792 0.504836 
-0.684377 0.285383 0.50252 
-0.683014 0.0975343 0.504563 
-0.681925 0.0990325 0.501838 
-0.681787 0.299006 0.50252 
-0.677019 0.284566 0.50538 
-0.674296 0.301594 0.506879 
-0.673477 0.301185 0.502112 
-0.673207 0.0735596 0.501566 
-0.672525 0.307042 0.50252 
-0.668576 0.111156 0.506879 
-0.66735 0.0980789 0.504563 
-0.666668 0.0979428 0.502656 
-0.666398 0.0948099 0.501974 
-0.66626 0.294374 0.50252 
-0.664078 0.306498 0.503065 
-0.66081 0.0983517 0.506606 
-0.66081 0.102847 0.506743 
-0.659721 0.0978066 0.504836 
-0.658221 0.0824138 0.501838 
-0.658221 0.293012 0.503201 
-0.657269 0.304727 0.50647 
-0.656587 0.385915 0.504291 
-0.6525 0.0918131 0.505652 
-0.652363 0.11497 0.505789 
-0.651819 0.112246 0.504972 
-0.650322 0.0870454 0.501974 
-0.648821 0.302002 0.505244 
-0.644602 0.0905872 0.50647 
-0.640241 0.479635 0.506879 
-0.636154 0.325296 0.504972 
-0.63588 0.324479 0.502792 
-0.635065 0.466966 0.501838 
-0.635065 0.143032 0.504836 
-0.634521 0.153521 0.504836 
-0.634109 0.158425 0.504972 
-0.633157 0.155973 0.501838 
-0.631931 0.48127 0.50647 
-0.630842 0.483994 0.502656 
-0.628663 0.119875 0.50647 
-0.627844 0.320665 0.501838 
-0.624302 0.163057 0.501294 
-0.623758 0.420787 0.505108 
-0.620353 0.113199 0.505516 
-0.619946 0.433728 0.503881 
-0.619946 0.434954 0.506198 
-0.612995 0.311265 0.502656 
-0.612043 0.434137 0.504155 
-0.610817 0.166599 0.506879 
-0.610679 0.113063 0.501566 
-0.610272 0.164964 0.505244 
-0.609865 0.162784 0.504155 
-0.609183 0.161558 0.50252 
-0.608909 0.446261 0.503201 
-0.607549 0.534668 0.503473 
-0.604277 0.317123 0.503201 
-0.601692 0.178858 0.506606 
-0.601417 0.175862 0.505652 
-0.60101 0.16796 0.502384 
-0.600736 0.17518 0.503881 
-0.600191 0.174499 0.501974 
-0.597331 0.541207 0.501566 
-0.595423 0.549108 0.505652 
-0.595153 0.523226 0.506743 
-0.594878 0.321754 0.504291 
-0.594608 0.128457 0.501702 
-0.582619 0.537801 0.505789 
-0.58153 0.388366 0.50647 
-0.568181 0.186351 0.504699 
-0.560553 0.18853 0.50647 
-0.560141 0.183898 0.503745 
-0.555922 0.128865 0.506334 
-0.554421 0.130091 0.503881 
-0.553606 0.129274 0.502112 
-0.527042 0.193707 0.505108 
-0.525408 0.197248 0.501566 
-0.479093 0.144667 0.501566 
-0.470646 0.14058 0.501294 
-0.464381 0.14889 0.506606 
-0.46261 0.135404 0.50143 
-0.694729 0.0927666 0.5126 
-0.685874 0.0874538 0.510829 
-0.685604 0.0944014 0.509876 
-0.684377 0.299823 0.511919 
-0.676886 0.294102 0.511783 
-0.676475 0.298733 0.5126 
-0.674978 0.307042 0.512192 
-0.670347 0.286473 0.512192 
-0.67021 0.281024 0.509467 
-0.669121 0.103119 0.508241 
-0.668439 0.101485 0.507015 
-0.666668 0.305544 0.510693 
-0.665442 0.308269 0.507287 
-0.662307 0.284293 0.510965 
-0.661355 0.284839 0.508377 
-0.660948 0.108568 0.508241 
-0.660948 0.105163 0.507696 
-0.658765 0.303501 0.511647 
-0.657269 0.306362 0.508377 
-0.654134 0.113608 0.510421 
-0.653864 0.0888163 0.508922 
-0.653456 0.134586 0.509876 
-0.653319 0.114562 0.507969 
-0.650322 0.29955 0.508377 
-0.648821 0.313036 0.511238 
-0.648144 0.310857 0.507151 
-0.647325 0.105027 0.512192 
-0.643646 0.470372 0.512464 
-0.643375 0.162103 0.50974 
-0.635747 0.171775 0.5126 
-0.635065 0.156246 0.507969 
-0.63302 0.477456 0.510557 
-0.62989 0.321754 0.508922 
-0.629752 0.110612 0.508377 
-0.628119 0.163874 0.511511 
-0.626211 0.344095 0.511647 
-0.623213 0.425964 0.511647 
-0.622124 0.131181 0.510148 
-0.619534 0.169051 0.50974 
-0.619534 0.17232 0.510693 
-0.619401 0.161422 0.508514 
-0.618719 0.177905 0.510693 
-0.6179 0.191118 0.512055 
-0.617081 0.190846 0.510012 
-0.616537 0.20079 0.510693 
-0.614766 0.126005 0.510421 
-0.611091 0.181583 0.511647 
-0.610272 0.44231 0.507151 
-0.608638 0.447623 0.508377 
-0.603326 0.175862 0.509876 
-0.599646 0.387549 0.511647 
-0.595697 0.181174 0.512328 
-0.594196 0.180084 0.508514 
-0.591066 0.388912 0.511511 
-0.589977 0.539981 0.511374 
-0.586705 0.52595 0.512192 
-0.578669 0.0321482 0.510285 
-0.57758 0.0316031 0.50865 
-0.575809 0.532897 0.50756 
-0.574853 0.535622 0.50974 
-0.571723 0.519139 0.50865 
-0.571178 0.522408 0.510693 
-0.569678 0.528266 0.512055 
-0.567225 0.219452 0.512328 
-0.56668 0.219452 0.510148 
-0.561505 0.187304 0.508922 
-0.558237 0.134995 0.512192 
-0.557555 0.1305 0.50974 
-0.557281 0.144122 0.510693 
-0.556466 0.139354 0.508377 
-0.534396 0.12941 0.5126 
-0.46656 0.14385 0.510557 
-0.688734 0.0939925 0.516142 
-0.687919 0.101349 0.515188 
-0.687645 0.089497 0.513963 
-0.682199 0.0978066 0.518457 
-0.681106 0.0973982 0.516687 
-0.667894 0.302411 0.514099 
-0.662174 0.165917 0.516959 
-0.660673 0.302684 0.516687 
-0.659992 0.302275 0.514507 
-0.654679 0.135268 0.513826 
-0.648688 0.135812 0.517913 
-0.644327 0.182945 0.517095 
-0.642012 0.314671 0.518321 
-0.641604 0.314671 0.51587 
-0.641193 0.102438 0.515325 
-0.636836 0.164555 0.513145 
-0.633839 0.125051 0.518321 
-0.631661 0.142896 0.515461 
-0.631386 0.0341915 0.516142 
-0.631386 0.14671 0.516006 
-0.629752 0.0360985 0.513418 
-0.62471 0.0389592 0.517913 
-0.624302 0.125732 0.514371 
-0.624165 0.425964 0.517232 
-0.620761 0.43727 0.516687 
-0.615992 0.313309 0.514507 
-0.615178 0.0410024 0.515188 
-0.61504 0.0360985 0.515461 
-0.613951 0.431549 0.515733 
-0.61245 0.179267 0.514643 
-0.611224 0.442038 0.515597 
-0.609728 0.20801 0.517232 
-0.607412 0.426509 0.514916 
-0.60646 0.430868 0.516414 
-0.606048 0.169595 0.516414 
-0.605367 0.175044 0.51655 
-0.604277 0.438769 0.516823 
-0.602644 0.526086 0.515188 
-0.602374 0.445307 0.517641 
-0.597194 0.178858 0.515325 
-0.596924 0.182673 0.516142 
-0.591881 0.535486 0.515597 
-0.587117 0.250919 0.516142 
-0.586435 0.526631 0.515052 
-0.582482 0.53821 0.518185 
-0.581937 0.026018 0.516687 
-0.580711 0.0269715 0.514371 
-0.577988 0.528266 0.517777 
-0.564776 0.191391 0.518185 
-0.560415 0.341098 0.51369 
-0.554284 0.335649 0.515597 
-0.55238 0.225038 0.517504 
-0.551835 0.223267 0.516006 
-0.548156 0.327476 0.518321 
-0.528405 0.132815 0.517641 
-0.527179 0.132815 0.515597 
-0.500341 0.18349 0.518185 
-0.498844 0.185533 0.515325 
-0.495302 0.139082 0.518049 
-0.492442 0.17954 0.517641 
-0.491079 0.181174 0.514916 
-0.490127 0.179948 0.513145 
-0.477185 0.151206 0.51587 
-0.684514 0.0655223 0.524043 
-0.683696 0.0607546 0.522135 
-0.678657 0.298052 0.520092 
-0.674704 0.0937202 0.520228 
-0.674571 0.105027 0.519684 
-0.673889 0.102574 0.518594 
-0.670484 0.300913 0.521727 
-0.670347 0.295464 0.51873 
-0.669802 0.305817 0.522544 
-0.669391 0.30173 0.519139 
-0.666123 0.110339 0.519548 
-0.661762 0.302138 0.521727 
-0.661492 0.30173 0.519412 
-0.656998 0.12832 0.51873 
-0.65509 0.294238 0.522272 
-0.654408 0.294238 0.519956 
-0.653182 0.304182 0.521319 
-0.651956 0.0973982 0.521046 
-0.64937 0.280888 0.522135 
-0.64937 0.226127 0.522135 
-0.648821 0.286064 0.522816 
-0.642556 0.127912 0.521046 
-0.637651 0.184307 0.521046 
-0.634109 0.128457 0.519002 
-0.633565 0.144258 0.521046 
-0.632613 0.16006 0.521455 
-0.62703 0.038823 0.521591 
-0.626348 0.0366436 0.520637 
-0.62158 0.435227 0.520092 
-0.620216 0.0380056 0.523906 
-0.618719 0.0389592 0.521727 
-0.617219 0.0414114 0.51873 
-0.616948 0.0370521 0.518866 
-0.614633 0.17232 0.519412 
-0.613677 0.179131 0.519002 
-0.613269 0.43727 0.519684 
-0.611091 0.445307 0.520092 
-0.607549 0.179403 0.523362 
-0.602918 0.445988 0.52309 
-0.602781 0.0272444 0.523226 
-0.600465 0.426236 0.523498 
-0.599102 0.175589 0.520909 
-0.597875 0.183354 0.520092 
-0.596786 0.439313 0.522544 
-0.595697 0.206784 0.522408 
-0.593519 0.0261541 0.521863 
-0.591336 0.180357 0.521455 
-0.590247 0.540526 0.520637 
-0.588751 0.544749 0.522544 
-0.58439 0.0257457 0.520365 
-0.583438 0.0237025 0.519548 
-0.579351 0.208691 0.520228 
-0.571723 0.138401 0.52309 
-0.562594 0.224492 0.524043 
-0.553062 0.23035 0.522408 
-0.549382 0.245607 0.519548 
-0.505516 0.13881 0.521999 
-0.494483 0.185261 0.524179 
-0.480045 0.143304 0.520909 
-0.455389 0.156382 0.52268 
-0.455252 0.160741 0.523362 
-0.695685 0.086228 0.529355 
-0.695548 0.0817325 0.529083 
-0.687237 0.0775099 0.528811 
-0.685874 0.0692003 0.526358 
-0.685741 0.0644326 0.526494 
-0.684785 0.0599372 0.524451 
-0.670892 0.103392 0.528401 
-0.670617 0.099986 0.527721 
-0.669121 0.118785 0.526494 
-0.663533 0.0922215 0.528811 
-0.662989 0.302411 0.526358 
-0.662856 0.30064 0.524587 
-0.656587 0.297643 0.528265 
-0.656179 0.296826 0.526086 
-0.651274 0.228307 0.528265 
-0.650592 0.228852 0.525814 
-0.650459 0.225991 0.524451 
-0.644327 0.129137 0.524587 
-0.641737 0.170958 0.528129 
-0.637106 0.138128 0.527448 
-0.62185 0.036507 0.526358 
-0.612725 0.029696 0.525677 
-0.612588 0.440403 0.524451 
-0.612588 0.44122 0.526904 
-0.612043 0.0269715 0.524997 
-0.611091 0.31072 0.525541 
-0.610135 0.166871 0.525814 
-0.606323 0.436998 0.528265 
-0.60387 0.308269 0.526358 
-0.596786 0.208691 0.526086 
-0.594063 0.166326 0.524451 
-0.590384 0.252145 0.527448 
-0.589703 0.251328 0.525405 
-0.589021 0.213458 0.529219 
-0.583575 0.130364 0.5299 
-0.581667 0.213595 0.529355 
-0.58044 0.215774 0.526494 
-0.580033 0.0178451 0.527584 
-0.572405 0.215502 0.526904 
-0.569407 0.237978 0.528129 
-0.567907 0.244517 0.528265 
-0.567769 0.24656 0.5299 
-0.558919 0.252145 0.528401 
-0.556192 0.151478 0.526768 
-0.554558 0.308133 0.526768 
-0.550064 0.25705 0.529355 
-0.546385 0.233619 0.528401 
-0.540665 0.264678 0.527176 
-0.538349 0.237842 0.529492 
-0.524182 0.134314 0.525405 
-0.52377 0.130636 0.524723 
-0.51805 0.133224 0.5299 
-0.516279 0.135812 0.52704 
-0.511378 0.190709 0.526358 
-0.510696 0.196158 0.52663 
-0.503883 0.18744 0.527584 
-0.503612 0.196431 0.528811 
-0.494483 0.189756 0.524723 
-0.457842 0.161286 0.529355 
-0.456341 0.15897 0.526086 
-0.690779 0.0815964 0.535077 
-0.690372 0.0954911 0.535621 
-0.68996 0.0690642 0.53426 
-0.689416 0.0923577 0.532761 
-0.689416 0.0824138 0.532761 
-0.682877 0.0756028 0.535485 
-0.682469 0.0968531 0.535077 
-0.680835 0.0809151 0.531399 
-0.680698 0.0570765 0.531399 
-0.680154 0.0967169 0.531126 
-0.680016 0.0642964 0.530446 
-0.674841 0.0664758 0.535213 
-0.674841 0.293284 0.533986 
-0.674296 0.0923577 0.534804 
-0.673889 0.0668848 0.53317 
-0.672525 0.0690642 0.530308 
-0.667212 0.290968 0.532489 
-0.667075 0.0565319 0.535621 
-0.665849 0.299687 0.534532 
-0.665849 0.0942648 0.533986 
-0.664897 0.301457 0.531535 
-0.661355 0.162512 0.533306 
-0.658495 0.296962 0.535621 
-0.657131 0.29846 0.532897 
-0.656998 0.0907234 0.531399 
-0.654134 0.227898 0.535349 
-0.651411 0.283204 0.53099 
-0.650459 0.292331 0.532625 
-0.649503 0.292603 0.530308 
-0.646098 0.221087 0.533033 
-0.643783 0.232938 0.531399 
-0.643508 0.236071 0.532625 
-0.643375 0.238659 0.534123 
-0.643238 0.287154 0.532216 
-0.639834 0.122054 0.531399 
-0.639289 0.142487 0.53426 
-0.639289 0.306634 0.533306 
-0.636292 0.231985 0.533986 
-0.636017 0.229396 0.532625 
-0.631931 0.1997 0.531262 
-0.631116 0.30173 0.530308 
-0.629752 0.31004 0.530172 
-0.629478 0.227217 0.535621 
-0.6273 0.179403 0.53385 
-0.6273 0.176815 0.532625 
-0.6179 0.038823 0.532761 
-0.617356 0.0359624 0.532079 
-0.614903 0.435363 0.531262 
-0.599784 0.369705 0.530308 
-0.591336 0.208418 0.533033 
-0.591066 0.215365 0.535213 
-0.586161 0.243563 0.535077 
-0.581937 0.218907 0.53426 
-0.580848 0.219997 0.531671 
-0.573901 0.0205695 0.530036 
-0.560553 0.248876 0.531671 
-0.559597 0.253644 0.532353 
-0.559326 0.258684 0.535349 
-0.5581 0.260455 0.532489 
-0.553062 0.252418 0.535349 
-0.552513 0.145348 0.535349 
-0.550879 0.257186 0.531535 
-0.539301 0.237025 0.531943 
-0.538757 0.242337 0.534804 
-0.538482 0.241792 0.532761 
-0.533444 0.228307 0.535077 
-0.532492 0.227081 0.531126 
-0.532492 0.229124 0.532625 
-0.52064 0.131998 0.534532 
-0.514645 0.183898 0.533033 
-0.514508 0.188666 0.533442 
-0.490397 0.188258 0.534123 
-0.489037 0.18962 0.531535 
-0.482768 0.178586 0.533306 
-0.466967 0.168914 0.532761 
-0.466015 0.176815 0.532216 
-0.465471 0.17014 0.530308 
-0.691731 0.0659307 0.537528 
-0.691461 0.0870454 0.536984 
-0.685466 0.0918131 0.54107 
-0.685192 0.0968531 0.541206 
-0.684922 0.112791 0.541206 
-0.68424 0.0937202 0.53821 
-0.683288 0.088135 0.536439 
-0.677431 0.0926305 0.540662 
-0.669935 0.0539436 0.540253 
-0.669121 0.0900421 0.539572 
-0.668302 0.0555784 0.537801 
-0.667894 0.0905872 0.537392 
-0.666531 0.129274 0.539163 
-0.660129 0.0979428 0.538619 
-0.659584 0.0952183 0.537664 
-0.65904 0.298052 0.537664 
-0.65536 0.160741 0.538346 
-0.65509 0.227898 0.537528 
-0.653864 0.237161 0.539163 
-0.646506 0.170413 0.539163 
-0.646373 0.23144 0.538755 
-0.643783 0.294374 0.539435 
-0.639289 0.315488 0.540389 
-0.638607 0.316714 0.537528 
-0.637381 0.231848 0.536439 
-0.637381 0.234981 0.537664 
-0.636973 0.241112 0.540389 
-0.636836 0.288244 0.539435 
-0.634109 0.300913 0.540253 
-0.633157 0.302684 0.537256 
-0.629752 0.231303 0.538891 
-0.629208 0.240567 0.540662 
-0.628934 0.231303 0.536575 
-0.627437 0.243291 0.537256 
-0.626892 0.0215231 0.536439 
-0.620353 0.241656 0.540253 
-0.620216 0.240022 0.538482 
-0.619534 0.0355534 0.53603 
-0.610135 0.368614 0.540389 
-0.600328 0.374336 0.539163 
-0.596516 0.123689 0.540253 
-0.587932 0.02234 0.538074 
-0.586842 0.247514 0.540798 
-0.586298 0.0115787 0.537392 
-0.586023 0.396131 0.538619 
-0.585753 0.24765 0.53603 
-0.583301 0.217136 0.536984 
-0.582211 0.0284702 0.54107 
-0.573082 0.0280612 0.539572 
-0.561912 0.155428 0.539844 
-0.56096 0.216047 0.540389 
-0.560415 0.15284 0.536575 
-0.560278 0.157608 0.53712 
-0.560278 0.217136 0.537937 
-0.559464 0.261 0.536848 
-0.540253 0.240022 0.537801 
-0.538349 0.249694 0.536848 
-0.533714 0.230759 0.536439 
-0.533714 0.233619 0.537801 
-0.53317 0.238115 0.538755 
-0.527042 0.228307 0.539844 
-0.524726 0.194524 0.540117 
-0.524589 0.197929 0.54107 
-0.523363 0.1918 0.536711 
-0.523363 0.195886 0.537392 
-0.521185 0.214821 0.539981 
-0.517235 0.188802 0.539981 
-0.516416 0.185669 0.536711 
-0.515872 0.190709 0.537256 
-0.508788 0.193843 0.540662 
-0.50661 0.194115 0.536167 
-0.506065 0.1997 0.536575 
-0.499526 0.194387 0.538482 
-0.453889 0.170549 0.54107 
-0.453889 0.167688 0.539844 
-0.69541 0.0937202 0.544476 
-0.694866 0.0813241 0.54325 
-0.680016 0.0863641 0.545021 
-0.679746 0.0956273 0.545566 
-0.679335 0.0553056 0.543522 
-0.677975 0.084866 0.541615 
-0.671162 0.0929028 0.544476 
-0.670347 0.0920854 0.542841 
-0.670073 0.132134 0.546519 
-0.665304 0.0811879 0.546928 
-0.66449 0.0889524 0.545975 
-0.662444 0.12219 0.545838 
-0.660536 0.136494 0.544884 
-0.656861 0.232802 0.545021 
-0.655498 0.234437 0.54216 
-0.654001 0.127367 0.545975 
-0.650048 0.225718 0.545293 
-0.649915 0.222449 0.544068 
-0.648006 0.23757 0.545975 
-0.645279 0.292195 0.542569 
-0.639971 0.233892 0.545021 
-0.636836 0.296962 0.546111 
-0.635202 0.299687 0.542977 
-0.630297 0.240158 0.543113 
-0.627982 0.294919 0.542297 
-0.624847 0.313309 0.546519 
-0.624302 0.312627 0.54434 
-0.621717 0.239477 0.54325 
-0.608909 0.30786 0.543931 
-0.601692 0.028334 0.546519 
-0.601555 0.0235663 0.546519 
-0.597194 0.389593 0.545293 
-0.595423 0.393952 0.541479 
-0.594471 0.210462 0.543522 
-0.592563 0.00599356 0.546791 
-0.584253 0.0117148 0.546247 
-0.58412 0.0253373 0.544204 
-0.582482 0.0143032 0.543386 
-0.578395 0.252963 0.541479 
-0.578125 0.216047 0.544204 
-0.576217 0.374608 0.545293 
-0.574309 0.379104 0.541615 
-0.571449 0.323525 0.54216 
-0.563683 0.157472 0.545293 
-0.562868 0.25378 0.543931 
-0.562324 0.159106 0.542841 
-0.562324 0.25705 0.545157 
-0.559734 0.0249283 0.544612 
-0.556466 0.251328 0.547064 
-0.554151 0.255959 0.543386 
-0.550334 0.141942 0.546928 
-0.54298 0.237842 0.545157 
-0.542706 0.240294 0.546655 
-0.541891 0.239885 0.542297 
-0.535078 0.237706 0.545566 
-0.534533 0.237297 0.543522 
-0.534533 0.235118 0.541888 
-0.532355 0.205013 0.542841 
-0.528405 0.226263 0.542705 
-0.521322 0.221496 0.542297 
-0.512055 0.187985 0.546928 
-0.497481 0.222313 0.544884 
-0.487811 0.180766 0.545429 
-0.486585 0.182264 0.542841 
-0.485495 0.199155 0.545838 
-0.48345 0.202425 0.542705 
-0.454163 0.172728 0.542433 
-0.708489 0.0727422 0.552513 
-0.705217 0.0811879 0.547336 
-0.699771 0.0836396 0.55224 
-0.69936 0.080779 0.551424 
-0.690372 0.0856829 0.54938 
-0.690235 0.0806428 0.54938 
-0.681787 0.0905872 0.549516 
-0.675248 0.0863641 0.550878 
-0.674978 0.091268 0.55115 
-0.674978 0.068928 0.549653 
-0.674296 0.0851383 0.54938 
-0.671436 0.130227 0.549243 
-0.668302 0.0768287 0.552513 
-0.665579 0.125732 0.552785 
-0.660266 0.0723332 0.55224 
-0.660266 0.0820048 0.552513 
-0.659177 0.0907234 0.551287 
-0.655905 0.124097 0.549243 
-0.65509 0.131181 0.548835 
-0.654134 0.137719 0.548562 
-0.650592 0.226672 0.5472 
-0.650322 0.110476 0.552104 
-0.648688 0.238115 0.548018 
-0.641467 0.000408439 0.548699 
-0.641193 0.114562 0.550606 
-0.639289 0.117831 0.547336 
-0.635473 -0.00286063 0.551832 
-0.633976 0.313854 0.550878 
-0.633565 0.236207 0.551287 
-0.63302 0.119602 0.550878 
-0.632887 0.232802 0.547746 
-0.631116 0.286882 0.5472 
-0.626755 0.312627 0.55156 
-0.625803 0.235527 0.55156 
-0.625666 0.313445 0.548835 
-0.625529 0.229805 0.548699 
-0.622124 0.144939 0.550197 
-0.621305 0.15175 0.549925 
-0.616811 0.315352 0.548699 
-0.611498 0.00272449 0.55156 
-0.603051 0.302002 0.548154 
-0.601825 0.00490387 0.548971 
-0.597605 0.390001 0.547746 
-0.594878 0.00544897 0.55047 
-0.594334 0.0262908 0.547336 
-0.593926 0.00531231 0.548835 
-0.588206 0.0215231 0.55115 
-0.586842 0.0179812 0.548971 
-0.58153 0.393543 0.552785 
-0.580711 0.24874 0.547609 
-0.579621 0.366299 0.550197 
-0.579351 0.26209 0.55047 
-0.57894 0.0288786 0.54829 
-0.575809 0.239477 0.55047 
-0.575265 0.243836 0.551424 
-0.57213 0.257866 0.551832 
-0.571586 0.257594 0.549653 
-0.564502 0.257866 0.551968 
-0.563276 0.25882 0.54938 
-0.562049 0.0197521 0.548426 
-0.555784 0.256096 0.547882 
-0.551968 0.141942 0.551014 
-0.551835 0.13881 0.550061 
-0.535622 0.243563 0.55047 
-0.535485 0.24547 0.552104 
-0.534533 0.208282 0.55047 
-0.530721 0.228443 0.551014 
-0.52895 0.239341 0.551968 
-0.52895 0.232802 0.547336 
-0.528405 0.1997 0.551424 
-0.527312 0.196567 0.548018 
-0.52636 0.253508 0.55224 
-0.524997 0.255687 0.549243 
-0.520095 0.194387 0.548971 
-0.519958 0.199973 0.55156 
-0.519958 0.192072 0.547473 
-0.519684 0.198202 0.549925 
-0.513012 0.197248 0.552513 
-0.512055 0.190437 0.54829 
-0.510559 0.210871 0.552649 
-0.508243 0.258548 0.549107 
-0.502931 0.200654 0.549516 
-0.502386 0.200382 0.547336 
-0.498844 0.227081 0.550061 
-0.498707 0.220814 0.547609 
-0.498437 0.22531 0.548426 
-0.496529 0.24152 0.552513 
-0.495847 0.24152 0.550333 
-0.495572 0.240839 0.548154 
-0.494758 0.207874 0.551832 
-0.491353 0.226672 0.552649 
-0.47773 0.206784 0.550197 
-0.477048 0.212778 0.550606 
-0.447487 0.191663 0.551287 
-0.423512 0.189211 0.552649 
-0.709441 0.0825499 0.554692 
-0.708896 0.0760113 0.553195 
-0.702902 0.0760113 0.557145 
-0.692276 0.0863641 0.553195 
-0.687375 0.0781906 0.557962 
-0.684514 0.0843209 0.553739 
-0.677019 0.0901783 0.55551 
-0.671162 0.0734229 0.557689 
-0.671029 0.0836396 0.557826 
-0.668983 0.0776461 0.554148 
-0.668846 0.0877266 0.554284 
-0.661762 0.0709712 0.554692 
-0.661492 0.0850021 0.555374 
-0.654679 0.0896337 0.557553 
-0.654546 0.0858195 0.556872 
-0.653045 0.106525 0.557553 
-0.652638 0.104481 0.556191 
-0.6525 0.0845932 0.553603 
-0.652363 0.114017 0.556872 
-0.650048 0.12723 0.554284 
-0.648144 0.208963 0.555238 
-0.647188 0.218907 0.556599 
-0.64705 0.0832312 0.557962 
-0.64705 0.216592 0.554964 
-0.646917 0.0805067 0.557009 
-0.645146 0.227898 0.556055 
-0.644872 0.231303 0.557281 
-0.638744 0.0814602 0.556735 
-0.637925 0.22817 0.55837 
-0.637244 0.115379 0.55837 
-0.636429 -0.0013625 0.552921 
-0.635202 0.312627 0.553603 
-0.635065 0.115107 0.55442 
-0.629752 -0.00245219 0.555238 
-0.629478 0.00558512 0.553603 
-0.627437 0.121782 0.556191 
-0.62703 0.235799 0.556191 
-0.626892 0.190982 0.556463 
-0.626755 0.243563 0.55837 
-0.625936 0.242337 0.556463 
-0.624165 0.145484 0.554284 
-0.624032 0.00408647 0.557826 
-0.622532 0.29846 0.556055 
-0.621987 0.0077645 0.554692 
-0.621305 0.304591 0.556599 
-0.619127 0.228988 0.553603 
-0.616404 0.247786 0.554828 
-0.614221 0.110748 0.55837 
-0.613407 -0.000953544 0.554692 
-0.611498 0.113336 0.553467 
-0.603463 0.271353 0.554964 
-0.597605 0.00449543 0.55442 
-0.596786 0.00204324 0.553603 
-0.594878 0.193162 0.557962 
-0.589565 0.0213864 0.552921 
-0.575535 0.0122599 0.556599 
-0.571723 0.304182 0.557962 
-0.567769 0.249694 0.556735 
-0.567225 0.170549 0.557553 
-0.565999 0.176951 0.557553 
-0.562049 0.238659 0.557962 
-0.556736 0.258003 0.55442 
-0.556599 0.261272 0.555782 
-0.540665 0.190029 0.558506 
-0.534263 0.25378 0.554148 
-0.528813 0.248195 0.55837 
-0.525134 0.224492 0.554556 
-0.521999 0.237025 0.553057 
-0.521455 0.244926 0.557417 
-0.521455 0.240703 0.554284 
-0.520366 0.246288 0.554828 
-0.51519 0.238523 0.557281 
-0.513419 0.198883 0.554284 
-0.511511 0.216728 0.557417 
-0.511378 0.220134 0.558642 
-0.510559 0.216456 0.555374 
-0.509877 0.215638 0.553467 
-0.506335 0.143168 0.557553 
-0.504839 0.152568 0.556599 
-0.503475 0.149571 0.553467 
-0.499659 0.237297 0.558234 
-0.497343 0.241792 0.554692 
-0.49571 0.206784 0.55442 
-0.493531 0.216456 0.553603 
-0.491897 0.228307 0.55442 
-0.491486 0.235254 0.556872 
-0.489852 0.238251 0.553603 
-0.488081 0.208418 0.556191 
-0.486855 0.209236 0.553739 
-0.472554 0.202016 0.556191 
-0.466423 0.196022 0.558234 
-0.465471 0.192753 0.554964 
-0.465196 0.197521 0.555646 
-0.450347 0.187985 0.556735 
-0.450214 0.192344 0.557553 
-0.44885 0.189756 0.554148 
-0.447354 0.208282 0.557145 
-0.433049 0.198202 0.558234 
-0.423787 0.192344 0.553875 
-0.705762 0.0697454 0.561367 
-0.690098 0.0799616 0.563275 
-0.68996 0.0765564 0.562594 
-0.689416 0.0746493 0.561231 
-0.64678 0.111701 0.561776 
-0.646643 0.228579 0.560277 
-0.645279 0.113336 0.559188 
-0.64419 0.148072 0.563955 
-0.644057 0.134586 0.560005 
-0.641467 0.212778 0.560823 
-0.64106 0.0768287 0.560277 
-0.640648 0.083095 0.559869 
-0.635202 0.000136146 0.56273 
-0.630571 0.310312 0.564228 
-0.63016 0.308949 0.56232 
-0.62989 0.236344 0.562866 
-0.629345 0.308813 0.559869 
-0.6288 0.0093993 0.564364 
-0.628252 0.13663 0.561367 
-0.62158 0.234981 0.563411 
-0.620216 0.237297 0.560277 
-0.612043 0.236752 0.56055 
-0.604007 0.241112 0.563955 
-0.603596 -0.000408959 0.563275 
-0.59556 0.000817398 0.56273 
-0.592837 0.16006 0.560277 
-0.590929 0.18131 0.564091 
-0.590929 0.264269 0.564364 
-0.590384 0.263997 0.561912 
-0.585753 0.202289 0.559733 
-0.585753 0.246833 0.562184 
-0.583982 0.255551 0.562048 
-0.583163 0.264405 0.564228 
-0.580578 0.00708325 0.563955 
-0.568451 0.24874 0.55946 
-0.567225 0.174908 0.560413 
-0.561642 0.250511 0.563683 
-0.558645 0.261953 0.56273 
-0.550197 0.137583 0.56273 
-0.54979 0.134859 0.56164 
-0.529628 0.247377 0.560823 
-0.5235 0.245198 0.564091 
-0.521866 0.246424 0.559188 
-0.516961 0.238251 0.564091 
-0.515735 0.238932 0.55946 
-0.514101 0.245879 0.559733 
-0.511922 0.22027 0.560823 
-0.510829 0.225855 0.561367 
-0.508381 0.236071 0.560686 
-0.501022 0.23539 0.561095 
-0.499526 0.153113 0.56273 
-0.495847 0.258275 0.561231 
-0.49571 0.172184 0.560959 
-0.493801 0.231712 0.562457 
-0.492168 0.235118 0.559188 
-0.491897 0.200926 0.562866 
-0.491079 0.206375 0.563411 
-0.489989 0.205285 0.559324 
-0.485629 0.230078 0.560823 
-0.479908 0.217545 0.560141 
-0.479638 0.166053 0.558916 
-0.474325 0.1997 0.559052 
-0.472962 0.207874 0.558916 
-0.471598 0.214821 0.559052 
-0.466967 0.199428 0.56164 
-0.466285 0.20474 0.562184 
-0.458931 0.200109 0.561504 
-0.448576 0.2091 0.561231 
-0.448168 0.207601 0.55946 
-0.443537 0.200109 0.564091 
-0.442311 0.206647 0.564364 
-0.441222 0.204196 0.56055 
-0.441085 0.201062 0.559324 
-0.434413 0.199155 0.562457 
-0.432912 0.201607 0.55946 
-0.427736 0.194115 0.564091 
-0.426373 0.194796 0.561776 
-0.425558 0.19466 0.559597 
-0.693914 0.0738319 0.569404 
-0.691868 0.0769648 0.566408 
-0.65223 0.0960357 0.569132 
-0.646098 0.0768287 0.569949 
-0.645554 0.147255 0.566271 
-0.64392 0.21305 0.567497 
-0.643783 0.0944014 0.567633 
-0.641604 0.222994 0.56668 
-0.640515 0.233892 0.567906 
-0.639971 0.231985 0.566271 
-0.639422 0.138401 0.569268 
-0.639289 -0.00667481 0.56886 
-0.637788 -0.00599408 0.566816 
-0.632887 0.116605 0.565999 
-0.632613 0.123416 0.567906 
-0.631794 0.189211 0.568178 
-0.631386 0.00912649 0.567906 
-0.630842 0.00599356 0.567361 
-0.630704 0.312219 0.566135 
-0.6288 0.0950822 0.569404 
-0.626755 0.105708 0.567769 
-0.624302 -0.00476772 0.569949 
-0.623076 0.233074 0.566135 
-0.622806 -0.0093993 0.568451 
-0.622669 -0.00286063 0.567497 
-0.621305 0.247786 0.56886 
-0.617081 0.123008 0.568042 
-0.616267 0.226536 0.565862 
-0.615722 0.308133 0.567906 
-0.614633 0.148753 0.569949 
-0.614221 0.238115 0.567225 
-0.614088 -0.00544897 0.566953 
-0.613269 0.243427 0.567906 
-0.609453 0.261545 0.567361 
-0.607275 0.237297 0.569677 
-0.604822 0.241792 0.566135 
-0.600054 0.228716 0.567633 
-0.599921 0.00245167 0.568996 
-0.593107 0.263997 0.569132 
-0.592837 0.00912649 0.570085 
-0.592018 0.264133 0.56668 
-0.590522 0.00994388 0.566271 
-0.583708 0.231303 0.569132 
-0.583575 0.00354189 0.56886 
-0.582756 0.267539 0.565726 
-0.582619 0.00313293 0.567225 
-0.580303 0.198747 0.565318 
-0.579759 0.247786 0.568996 
-0.573764 0.198065 0.567906 
-0.569815 0.25487 0.566953 
-0.568181 0.262226 0.567361 
-0.568044 0.264133 0.569268 
-0.567092 0.193298 0.569404 
-0.532355 0.24765 0.569813 
-0.526497 0.234028 0.565046 
-0.519139 0.233892 0.567633 
-0.512193 0.226672 0.56559 
-0.510829 0.236344 0.567225 
-0.504427 0.2264 0.565999 
-0.501979 0.153385 0.56886 
-0.501567 0.149026 0.566135 
-0.494213 0.156791 0.570085 
-0.494076 0.199019 0.567769 
-0.490808 0.216728 0.566953 
-0.485358 0.202152 0.566953 
-0.470102 0.198883 0.568178 
-0.460972 0.201062 0.567769 
-0.459069 0.205013 0.564501 
-0.452255 0.200518 0.565862 
-0.45171 0.210871 0.56954 
-0.445853 0.196976 0.569404 
-0.445038 0.202833 0.569813 
-0.431141 0.189893 0.56954 
-0.429914 0.190573 0.567225 
-0.42392 0.1824 0.569949 
-0.695955 0.0712435 0.572265 
-0.654271 0.0926305 0.572265 
-0.646643 0.0988963 0.574036 
-0.646098 0.0888163 0.571584 
-0.645961 0.0929028 0.572129 
-0.64106 0.136766 0.571856 
-0.635335 0.222858 0.571311 
-0.633839 0.131045 0.571448 
-0.633565 0.187032 0.571039 
-0.633432 0.238387 0.573627 
-0.630842 0.0750577 0.570631 
-0.629752 0.0980789 0.572402 
-0.628119 0.107751 0.571039 
-0.625392 0.232121 0.571039 
-0.624984 0.0656584 0.572129 
-0.621305 0.101485 0.571175 
-0.62049 0.113881 0.573082 
-0.618445 0.229396 0.574173 
-0.616948 0.306362 0.570903 
-0.611224 0.120556 0.570903 
-0.610409 0.264133 0.571311 
-0.60959 0.234437 0.575262 
-0.607138 0.24043 0.571175 
-0.604415 0.00926315 0.575126 
-0.595697 0.258275 0.573218 
-0.593244 0.267675 0.572946 
-0.589977 0.282114 0.573763 
-0.583026 0.273668 0.571311 
-0.580848 0.253099 0.574581 
-0.58044 0.21196 0.572538 
-0.580033 0.25773 0.575806 
-0.579759 0.253644 0.571992 
-0.572538 0.284566 0.573218 
-0.56927 0.267947 0.575262 
-0.568044 0.268628 0.572674 
-0.567907 0.193979 0.571311 
-0.567636 0.198065 0.572265 
-0.55524 0.254052 0.572129 
-0.554832 0.259229 0.575398 
-0.539709 0.217409 0.57172 
-0.533307 0.248059 0.574173 
-0.528131 0.233892 0.57172 
-0.521455 0.229124 0.571175 
-0.521322 0.232257 0.572538 
-0.519684 0.239068 0.57281 
-0.513964 0.232257 0.575126 
-0.507969 0.216592 0.571039 
-0.502793 0.205558 0.572129 
-0.502249 0.210325 0.573082 
-0.499659 0.221496 0.571992 
-0.495847 0.156791 0.574173 
-0.495165 0.162784 0.574445 
-0.494076 0.159515 0.571311 
-0.49176 0.18349 0.574717 
-0.487266 0.203242 0.573218 
-0.486992 0.166053 0.575806 
-0.471461 0.197384 0.570903 
-0.465059 0.194251 0.574173 
-0.464244 0.200654 0.574445 
-0.46261 0.198883 0.570494 
-0.45457 0.199428 0.570631 
-0.445446 0.20474 0.571448 
-0.439314 0.20079 0.574989 
-0.43223 0.188258 0.572265 
-0.432097 0.191527 0.573355 
-0.424602 0.182945 0.571856 
-0.423242 0.200109 0.575534 
-0.657813 0.0866364 0.578259 
-0.657406 0.0918131 0.578531 
-0.649503 0.0961718 0.57894 
-0.648277 0.0969892 0.576624 
-0.640786 0.207465 0.578123 
-0.640241 0.212505 0.578804 
-0.639696 0.101894 0.577033 
-0.639696 0.10598 0.577713 
-0.638333 0.225038 0.579621 
-0.638063 -0.0148483 0.578804 
-0.634521 0.0960357 0.580847 
-0.632887 0.10489 0.58003 
-0.632342 0.100803 0.577305 
-0.630434 -0.010489 0.57894 
-0.630297 -0.00435928 0.578259 
-0.626348 0.235935 0.57676 
-0.62335 0.220542 0.581391 
-0.618175 0.0833673 0.577441 
-0.617081 0.157063 0.577987 
-0.615448 0.108159 0.577033 
-0.614496 -0.00422314 0.578395 
-0.611224 0.234437 0.579758 
-0.610272 0.234437 0.577441 
-0.606186 0.253644 0.57676 
-0.605778 0.260046 0.579621 
-0.603733 0.0916769 0.580711 
-0.602374 0.0927666 0.578531 
-0.600191 0.00422262 0.580575 
-0.589565 0.00980774 0.57676 
-0.589158 0.292875 0.578123 
-0.587387 0.263588 0.576488 
-0.58698 0.266993 0.577987 
-0.586705 0.269582 0.579621 
-0.585753 0.200654 0.580302 
-0.58439 0.245743 0.581529 
-0.580303 0.263997 0.581119 
-0.577036 0.198202 0.576488 
-0.575128 0.213731 0.581119 
-0.554421 0.263452 0.576624 
-0.551291 0.248467 0.580711 
-0.551153 0.125596 0.578804 
-0.551016 0.247514 0.578667 
-0.54979 0.127639 0.576216 
-0.535759 0.243155 0.577851 
-0.528813 0.240567 0.578804 
-0.516687 0.228852 0.580438 
-0.514916 0.232121 0.577305 
-0.512874 0.206511 0.578123 
-0.503883 0.211824 0.579212 
-0.49721 0.205694 0.578804 
-0.489852 0.159515 0.579758 
-0.489308 0.164964 0.580166 
-0.466152 0.201471 0.580847 
-0.465878 0.197793 0.577441 
-0.464652 0.203787 0.577987 
-0.458931 0.196703 0.58003 
-0.458524 0.201198 0.580983 
-0.456616 0.200245 0.576896 
-0.453074 0.187032 0.580711 
-0.449669 0.194933 0.576352 
-0.448443 0.203923 0.578259 
-0.442448 0.19684 0.580302 
-0.44027 0.200382 0.577169 
-0.435364 0.193979 0.581255 
-0.43509 0.19248 0.579484 
-0.434001 0.188666 0.576352 
-0.433456 0.193979 0.577033 
-0.427329 0.18962 0.580575 
-0.651548 0.0922215 0.582345 
-0.643783 0.0993053 0.583844 
-0.643101 0.212232 0.585615 
-0.6382 0.229805 0.582754 
-0.636699 0.0993053 0.585751 
-0.635202 0.100667 0.583436 
-0.634246 0.21414 0.585206 
-0.631249 0.229669 0.585343 
-0.628119 -0.0125322 0.586432 
-0.625259 -0.0122599 0.583026 
-0.623076 0.0839124 0.58684 
-0.621305 0.0975343 0.586296 
-0.619671 -0.000681252 0.585615 
-0.617219 0.255551 0.585206 
-0.616811 0.129819 0.586296 
-0.612588 0.101349 0.585206 
-0.612317 0.104618 0.58616 
-0.611636 0.0973982 0.582482 
-0.610954 0.103664 0.582482 
-0.610679 0.248876 0.58725 
-0.606186 0.148208 0.586977 
-0.603596 0.00585741 0.585069 
-0.603326 0.274077 0.582754 
-0.601962 0.00177094 0.583162 
-0.598557 0.185397 0.584797 
-0.595153 0.278164 0.586704 
-0.595153 0.201607 0.584525 
-0.588339 0.268901 0.584661 
-0.587932 0.105299 0.584389 
-0.587661 0.27435 0.585479 
-0.583708 0.217273 0.584661 
-0.581259 0.263997 0.583572 
-0.580303 0.236752 0.58616 
-0.57608 0.217 0.584661 
-0.575947 0.285656 0.585206 
-0.575672 0.215229 0.58289 
-0.572949 0.111565 0.586704 
-0.569952 0.203378 0.581665 
-0.569815 0.206511 0.583162 
-0.558919 0.254461 0.583708 
-0.558645 0.256913 0.585479 
-0.554284 0.240567 0.585206 
-0.549108 0.261408 0.584253 
-0.548701 0.260046 0.582345 
-0.542161 0.25991 0.58725 
-0.541891 0.258957 0.585069 
-0.530309 0.242065 0.585069 
-0.518595 0.226263 0.585615 
-0.509333 0.231576 0.584389 
-0.499389 0.202016 0.582073 
-0.49857 0.207329 0.582754 
-0.497888 0.213186 0.585615 
-0.49176 0.160605 0.583572 
-0.49176 0.163874 0.584661 
-0.478275 0.190029 0.583844 
-0.475003 0.207192 0.585615 
-0.474733 0.203378 0.582345 
-0.473781 0.208418 0.583162 
-0.465741 0.205967 0.581665 
-0.46111 0.195614 0.584797 
-0.459069 0.204196 0.584661 
-0.453619 0.196431 0.58684 
-0.452667 0.202561 0.58725 
-0.45144 0.199564 0.583844 
-0.451166 0.197384 0.582209 
-0.443537 0.1997 0.583844 
-0.44313 0.198065 0.582209 
-0.442993 0.203787 0.584933 
-0.436861 0.194251 0.585479 
-0.429233 0.186759 0.583572 
-0.428281 0.193298 0.583844 
-0.657543 0.0909957 0.592562 
-0.649096 0.0956273 0.592971 
-0.647869 0.0957634 0.591064 
-0.645691 0.0991691 0.587931 
-0.641604 0.0904506 0.592698 
-0.64133 0.0875899 0.591472 
-0.637925 0.206103 0.589565 
-0.637381 0.123008 0.592698 
-0.637106 0.213458 0.592017 
-0.635473 0.132271 0.592017 
-0.633976 0.227898 0.592425 
-0.629345 -0.0129412 0.588339 
-0.629208 0.206375 0.589838 
-0.625803 0.130364 0.588203 
-0.62471 0.0817325 0.589429 
-0.623213 0.268628 0.588339 
-0.622124 0.0990325 0.587794 
-0.621987 -0.00504053 0.588747 
-0.62185 0.238523 0.587522 
-0.621442 -0.0133496 0.588475 
-0.615722 -0.00708377 0.591336 
-0.608909 -0.0099444 0.592425 
-0.60646 0.197248 0.590246 
-0.605641 -0.00762836 0.588203 
-0.599921 0.231303 0.592289 
-0.597468 0.105571 0.587931 
-0.5927 0.0964447 0.590927 
-0.589703 0.272987 0.590655 
-0.58698 0.250919 0.591745 
-0.583301 0.229941 0.590382 
-0.581804 0.109794 0.58902 
-0.580985 0.241112 0.592017 
-0.58044 0.24043 0.589974 
-0.578807 0.211007 0.588611 
-0.577169 0.258684 0.592153 
-0.574176 0.269854 0.591609 
-0.568996 0.221632 0.590246 
-0.566547 0.264405 0.590791 
-0.56641 0.26713 0.592425 
-0.565865 0.115243 0.589702 
-0.565591 0.112655 0.588475 
-0.562324 0.250374 0.592017 
-0.559734 0.255687 0.588203 
-0.549382 0.121645 0.59011 
-0.547611 0.123961 0.587522 
-0.545159 0.255823 0.592971 
-0.540528 0.239068 0.590382 
-0.537123 0.224084 0.592153 
-0.536849 0.255279 0.590791 
-0.536167 0.25487 0.588611 
-0.535485 0.260727 0.591745 
-0.513149 0.222721 0.588884 
-0.499933 0.209372 0.588747 
-0.497888 0.218635 0.588475 
-0.495302 0.160468 0.592017 
-0.493801 0.159788 0.587931 
-0.493394 0.163329 0.589157 
-0.484677 0.166462 0.588339 
-0.477185 0.173409 0.592834 
-0.476774 0.212369 0.592971 
-0.46683 0.215502 0.59011 
-0.460565 0.202016 0.587386 
-0.453889 0.201062 0.589974 
-0.453211 0.207737 0.592562 
-0.45144 0.210462 0.589702 
-0.446942 0.199973 0.592562 
-0.444627 0.201062 0.587931 
-0.444219 0.204876 0.58902 
-0.438087 0.193707 0.587794 
-0.432775 0.18744 0.591881 
-0.431278 0.194524 0.592153 
-0.431278 0.18744 0.587522 
-0.431141 0.190301 0.588884 
-0.415202 0.19357 0.592698 
-0.660266 0.0777822 0.594878 
-0.652093 0.0930389 0.597874 
-0.651274 0.0923577 0.596104 
-0.647732 0.205694 0.593924 
-0.644602 0.0863641 0.597874 
-0.64419 0.0843209 0.596512 
-0.639559 0.207737 0.595831 
-0.637651 0.127775 0.595423 
-0.636699 0.0832312 0.596785 
-0.636562 0.222858 0.595967 
-0.635202 -0.0122599 0.59624 
-0.635065 0.230623 0.596104 
-0.629071 0.221087 0.596785 
-0.627437 -0.0133496 0.596785 
-0.625803 -0.0113064 0.594469 
-0.623488 0.202697 0.593107 
-0.623076 0.122463 0.596785 
-0.621172 0.126005 0.593652 
-0.620898 -0.0122599 0.598147 
-0.61899 0.229532 0.596921 
-0.618719 -0.00844575 0.59515 
-0.618038 -0.0110341 0.594333 
-0.6179 0.199564 0.598419 
-0.616404 0.118376 0.597874 
-0.615448 0.200518 0.593788 
-0.610817 -0.00899086 0.595423 
-0.602236 0.143986 0.594469 
-0.601147 0.236752 0.597602 
-0.596105 0.0885435 0.595287 
-0.594063 0.0979428 0.594333 
-0.593244 0.103392 0.594605 
-0.591611 0.241792 0.598829 
-0.58698 0.105163 0.598147 
-0.586298 0.105163 0.59624 
-0.585479 0.263043 0.595695 
-0.584664 0.200245 0.598283 
-0.583438 0.201062 0.595831 
-0.583301 0.199155 0.594196 
-0.578532 0.289606 0.59624 
-0.578125 0.105435 0.59624 
-0.577306 0.115516 0.597058 
-0.575535 0.117968 0.594469 
-0.569952 0.113336 0.598011 
-0.569407 0.264133 0.598011 
-0.568996 0.114153 0.595831 
-0.568726 0.112519 0.594333 
-0.566817 0.268628 0.594333 
-0.56382 0.248876 0.594741 
-0.563276 0.255415 0.597874 
-0.561097 0.259774 0.594196 
-0.554151 0.11497 0.598011 
-0.549382 0.24043 0.594605 
-0.546248 0.119194 0.598829 
-0.543525 0.263588 0.59338 
-0.539301 0.253099 0.598419 
-0.538482 0.225174 0.598692 
-0.538075 0.22313 0.594741 
-0.537256 0.256777 0.59515 
-0.536849 0.228443 0.595559 
-0.511922 0.231167 0.59338 
-0.511378 0.211007 0.598829 
-0.491216 0.224765 0.595967 
-0.479771 0.170958 0.597738 
-0.478682 0.176679 0.598419 
-0.47773 0.17518 0.594469 
-0.465471 0.198474 0.597058 
-0.45566 0.206511 0.597194 
-0.454708 0.212096 0.598147 
-0.453344 0.210053 0.594196 
-0.453211 0.218499 0.598692 
-0.447217 0.202425 0.59406 
-0.439725 0.199291 0.595014 
-0.438632 0.205422 0.595695 
-0.434683 0.193979 0.598692 
-0.433594 0.190982 0.59515 
-0.432367 0.197929 0.595559 
-0.417929 0.188666 0.596104 
-0.417385 0.196567 0.598419 
-0.415202 0.200245 0.595287 
-0.411798 0.182945 0.597874 
-0.41139 0.18131 0.596104 
-0.410846 0.179676 0.594469 
-0.668713 0.199973 0.603732 
-0.654816 0.0907234 0.602507 
-0.65359 0.0909957 0.600463 
-0.650729 0.2091 0.603732 
-0.650322 0.207329 0.602097 
-0.64678 0.0826861 0.600872 
-0.646643 0.0877266 0.60128 
-0.640104 -0.0136224 0.60346 
-0.639422 0.0776461 0.600463 
-0.639422 -0.0164831 0.602779 
-0.637651 -0.0137586 0.60019 
-0.63588 0.202289 0.604004 
-0.632613 -0.014167 0.603732 
-0.630434 -0.0102167 0.600599 
-0.629345 0.224629 0.60019 
-0.624165 -0.0119876 0.603051 
-0.623895 -0.0156657 0.602643 
-0.621442 -0.0103528 0.599237 
-0.620216 0.195614 0.601689 
-0.619401 0.200926 0.602507 
-0.618852 0.11429 0.601144 
-0.615722 0.214003 0.60128 
-0.614633 -0.00885471 0.600326 
-0.591473 0.0965808 0.604414 
-0.591066 0.0822776 0.599237 
-0.590384 0.0965808 0.602507 
-0.59011 0.0893609 0.598965 
-0.587661 0.197657 0.60346 
-0.58725 0.195614 0.601825 
-0.582349 0.104345 0.604277 
-0.58044 0.286201 0.599373 
-0.579488 0.111156 0.600326 
-0.57213 0.116469 0.602915 
-0.567907 0.210325 0.60237 
-0.567636 0.208963 0.600326 
-0.566547 0.106525 0.604004 
-0.563138 0.257322 0.599782 
-0.562324 0.23321 0.60346 
-0.5581 0.24874 0.601825 
-0.556736 0.257458 0.604414 
-0.550197 0.24765 0.602097 
-0.548701 0.250511 0.598965 
-0.539846 0.259229 0.604004 
-0.539027 0.126413 0.602779 
-0.537938 0.229669 0.599782 
-0.537938 0.25991 0.599101 
-0.537123 0.234981 0.600736 
-0.536986 0.23757 0.60237 
-0.531399 0.2264 0.600736 
-0.530854 0.229124 0.60237 
-0.49176 0.19684 0.601144 
-0.489037 0.211688 0.603868 
-0.485221 0.188939 0.60128 
-0.483587 0.196976 0.601416 
-0.481135 0.207465 0.600872 
-0.471598 0.181719 0.603596 
-0.455252 0.216592 0.60346 
-0.455115 0.214685 0.601825 
-0.447487 0.214276 0.602097 
-0.447217 0.217954 0.60346 
-0.434413 0.198747 0.601961 
-0.433319 0.200109 0.599373 
-0.420245 0.192617 0.603732 
-0.417518 0.198747 0.600054 
-0.413298 0.180766 0.600463 
-0.41275 0.184852 0.601552 
-0.405396 0.186215 0.60346 
-0.405258 0.184035 0.601961 
-0.398042 0.178041 0.601552 
-0.397904 0.18022 0.603187 
-0.680973 0.192072 0.610135 
-0.670484 0.201062 0.607818 
-0.669665 0.200382 0.605775 
-0.66081 0.207329 0.6085 
-0.658088 0.213458 0.604822 
-0.650592 0.212778 0.604958 
-0.64419 0.20692 0.606865 
-0.643783 0.0773738 0.608228 
-0.643238 0.214685 0.609181 
-0.64133 0.217545 0.606185 
-0.640923 0.0825499 0.604822 
-0.636292 0.207056 0.607001 
-0.63588 -0.0137586 0.6085 
-0.635473 0.212505 0.607818 
-0.634928 -0.0147121 0.607138 
-0.628934 -0.0198883 0.609045 
-0.622943 0.226808 0.606593 
-0.620898 0.20406 0.608228 
-0.620898 -0.0149844 0.609181 
-0.618308 -0.0178451 0.605094 
-0.611773 0.272851 0.608909 
-0.604007 0.0814602 0.608772 
-0.603596 0.0855467 0.609589 
-0.603463 0.27435 0.608772 
-0.602644 0.0915408 0.609725 
-0.601555 0.218635 0.609317 
-0.592974 0.216183 0.607682 
-0.592018 0.101894 0.606729 
-0.592018 0.0982156 0.605911 
-0.589565 0.194251 0.606593 
-0.587387 0.240294 0.6085 
-0.583708 0.102711 0.606729 
-0.583163 0.107751 0.607138 
-0.576899 0.248467 0.609045 
-0.571311 0.269854 0.6085 
-0.569952 0.20801 0.607546 
-0.569678 0.206784 0.605503 
-0.566955 0.107342 0.605775 
-0.56668 0.111156 0.606593 
-0.555103 0.234981 0.607682 
-0.545022 0.241929 0.605911 
-0.543525 0.115379 0.607954 
-0.542706 0.122463 0.609862 
-0.540935 0.125732 0.607001 
-0.535078 0.246152 0.604958 
-0.532355 0.226808 0.605231 
-0.528539 0.216319 0.607954 
