ply
format ascii 1.0
comment VCGLIB generated
element vertex 1602
property float x
property float y
property float z
element face 0
property list uchar int vertex_indices
end_header
-0.946089 0.144273 0.300224 
-0.944792 0.16362 0.310723 
-0.942786 0.181903 0.323464 
-0.942668 0.203138 0.330188 
-0.941488 0.222721 0.340215 
-0.939248 0.240534 0.353781 
-0.93736 0.259172 0.365931 
-0.937242 0.280642 0.372419 
-0.935826 0.293264 0.381621 
-0.9002 0.256577 0.506193 
-0.937242 -0.324879 0.267075 
-0.93854 -0.306476 0.266839 
-0.945264 -0.274743 0.249617 
-0.946679 -0.254689 0.250089 
-0.947859 -0.235342 0.250678 
-0.951044 -0.213873 0.24419 
-0.953285 -0.192757 0.241949 
-0.953757 -0.173056 0.24537 
-0.954347 -0.153356 0.248791 
-0.955763 -0.13165 0.249026 
-0.957533 -0.111832 0.247847 
-0.95942 -0.0920137 0.246431 
-0.95942 -0.0739649 0.251504 
-0.958476 -0.0578035 0.259526 
-0.95883 -0.0390468 0.263418 
-0.959065 -0.0206441 0.267902 
-0.959184 -0.00259524 0.27262 
-0.959184 0.0154536 0.277221 
-0.959184 0.0331486 0.282411 
-0.95942 0.0511974 0.286894 
-0.960245 0.0704259 0.289135 
-0.960363 0.0883568 0.293618 
-0.959065 0.103457 0.302701 
-0.958712 0.120443 0.308718 
-0.958948 0.138256 0.313083 
-0.958122 0.154418 0.320514 
-0.956825 0.169518 0.329716 
-0.955055 0.183792 0.340333 
-0.953639 0.198537 0.350124 
-0.953049 0.210688 0.355433 
-0.936416 0.208446 0.418898 
-0.939012 0.226377 0.413235 
-0.937478 0.239354 0.422437 
-0.933703 0.245488 0.438363 
-0.925092 0.242421 0.470685 
-0.920491 0.242774 0.488026 
-0.946797 -0.319924 0.287483 
-0.947387 -0.30624 0.288545 
-0.961071 -0.219181 0.258936 
-0.961779 -0.20361 0.260587 
-0.962841 -0.187331 0.261295 
-0.963785 -0.171287 0.262003 
-0.964374 -0.156069 0.26389 
-0.965436 -0.139672 0.26389 
-0.966616 -0.123274 0.263773 
-0.968149 -0.106406 0.262946 
-0.969093 -0.0905981 0.263537 
-0.969565 -0.0758523 0.26566 
-0.970037 -0.0614604 0.268137 
-0.970154 -0.0452991 0.271912 
-0.970273 -0.0268963 0.276394 
-0.970273 -0.00908342 0.281586 
-0.970273 0.00861153 0.286776 
-0.970037 0.0259526 0.292556 
-0.969918 0.0416422 0.296803 
-0.970626 0.0583933 0.298927 
-0.970273 0.0753804 0.305179 
-0.969211 0.0909522 0.313554 
-0.968739 0.107586 0.32016 
-0.968385 0.12469 0.32594 
-0.968149 0.141795 0.331603 
-0.967795 0.156659 0.336793 
-0.918368 0.0927211 0.508317 
-0.920844 0.104164 0.502064 
-0.955881 0.188156 0.391059 
-0.953521 0.196296 0.402265 
-0.948567 0.205969 0.423971 
-0.945617 0.214934 0.437891 
-0.944202 0.224489 0.44544 
-0.937596 0.228265 0.471747 
-0.954111 -0.319688 0.303292 
-0.955055 -0.30282 0.304117 
-0.955644 -0.28831 0.305887 
-0.960009 -0.265896 0.294798 
-0.964021 -0.245842 0.284771 
-0.965789 -0.232157 0.28135 
-0.966733 -0.22036 0.280759 
-0.967913 -0.208446 0.279698 
-0.914947 -0.312139 0.45476 
-0.976878 -0.116315 0.269906 
-0.977233 -0.101805 0.272384 
-0.977469 -0.087531 0.275215 
-0.976878 -0.0750265 0.280878 
-0.977705 -0.0598089 0.281939 
-0.977705 -0.0462428 0.285832 
-0.978766 -0.0306712 0.286422 
-0.978766 -0.0171051 0.289844 
-0.978766 -0.00353899 0.2935 
-0.978766 0.00990915 0.297275 
-0.978766 0.0232394 0.30105 
-0.978412 0.0358618 0.306004 
-0.97853 0.0495459 0.309072 
-0.97853 0.062876 0.312847 
-0.97912 0.0772678 0.314498 
-0.921316 -0.00979119 0.511266 
-0.92108 0.00165157 0.515277 
-0.922378 0.0134482 0.513861 
-0.923675 0.0253628 0.512091 
-0.924973 0.0372774 0.510322 
-0.961307 0.202194 0.416775 
-0.959065 0.207148 0.426802 
-0.961661 0.222838 0.42055 
-0.958712 0.226731 0.432936 
-0.953757 0.222956 0.450985 
-0.950809 0.222485 0.462192 
-0.960245 -0.315796 0.319571 
-0.960953 -0.301994 0.320633 
-0.960599 -0.288074 0.325351 
-0.961071 -0.274271 0.327121 
-0.964021 -0.257284 0.320278 
-0.966733 -0.244662 0.312728 
-0.926389 -0.300106 0.452164 
-0.927215 -0.283237 0.453345 
-0.929338 -0.258464 0.451456 
-0.929574 -0.243129 0.454878 
-0.927333 -0.238056 0.464669 
-0.925209 -0.230152 0.474696 
-0.982895 -0.0822225 0.293264 
-0.982305 -0.069954 0.299163 
-0.981126 -0.0585112 0.306476 
-0.979709 -0.052377 0.313672 
-0.978766 -0.038339 0.320986 
-0.978648 -0.0103811 0.329244 
-0.980772 0.0147458 0.328182 
-0.982423 0.0296095 0.326176 
-0.982541 0.0432937 0.329597 
-0.932877 -0.0129762 0.50348 
-0.931933 -0.0053085 0.509378 
-0.932524 0.00530844 0.510087 
-0.965789 -0.291612 0.34281 
-0.965436 -0.28017 0.346939 
-0.962015 -0.276277 0.361449 
-0.958358 -0.274979 0.375958 
-0.955881 -0.270614 0.386103 
-0.953521 -0.266014 0.395894 
-0.95128 -0.261295 0.405686 
-0.949039 -0.256105 0.414887 
-0.946915 -0.25115 0.424443 
-0.945381 -0.247022 0.431048 
-0.936062 -0.240298 0.468326 
-0.935944 -0.230506 0.471157 
-0.935708 -0.221069 0.474342 
-0.935708 -0.21116 0.476937 
-0.988911 -0.0762062 0.309072 
-0.988203 -0.0641737 0.315442 
-0.987024 -0.0526129 0.322638 
-0.985136 -0.0474225 0.331367 
-0.98207 -0.0423499 0.344815 
-0.978058 -0.0323228 0.363218 
-0.978648 -0.017577 0.365223 
-0.980181 -0.00318511 0.363454 
-0.980653 0.00920141 0.364869 
-0.951044 -0.0138021 0.471864 
-0.993276 -0.0710157 0.327593 
-0.992332 -0.0637017 0.333019 
-0.99186 -0.0554442 0.336912 
-0.991034 -0.0481302 0.342338 
-0.989501 -0.0421139 0.34977 
-0.987141 -0.0379851 0.360505 
-0.985018 -0.0355078 0.369588 
-0.960245 -0.0688923 0.454996 
-0.963194 -0.052377 0.448272 
-0.967441 -0.0325587 0.438008 
-0.968031 -0.0206441 0.438599 
-0.96638 -0.0169871 0.44603 
-0.995989 -0.0659431 0.340805 
-0.99481 -0.0593369 0.347293 
-0.993984 -0.0517872 0.352366 
-0.99304 -0.0447092 0.358381 
-0.991389 -0.0388108 0.366167 
-0.989383 -0.0337383 0.375486 
-0.988322 -0.0267783 0.381621 
-0.986788 -0.0228855 0.388581 
-0.9849 -0.0199363 0.396956 
-0.982305 -0.0168691 0.407573 
-0.978648 -0.017223 0.421729 
-0.975935 -0.0167512 0.431992 
-0.998349 -0.0684204 0.341041 
-0.997286 -0.0614604 0.347057 
-0.996343 -0.0542644 0.352719 
-0.995399 -0.0469506 0.358263 
-0.99422 -0.0424678 0.364161 
-0.993158 -0.0398726 0.368526 
-0.992214 -0.0372774 0.373246 
-0.990798 -0.0331485 0.379498 
-0.990209 -0.0274862 0.38339 
-0.98903 -0.0241831 0.388934 
-0.987024 -0.0213519 0.397664 
-0.984429 -0.0205262 0.407691 
-0.981598 -0.0217058 0.418544 
-0.979356 -0.0214698 0.427155 
-0.977822 -0.0195824 0.433172 
-0.998702 -0.0678305 0.343753 
-0.997994 -0.0646455 0.34741 
-0.997405 -0.0613425 0.350596 
-0.996815 -0.0578035 0.353545 
-0.996343 -0.0540286 0.356258 
-0.995871 -0.0504895 0.359207 
-0.995282 -0.0470686 0.362392 
-0.994691 -0.0437654 0.365578 
-0.993984 -0.0405804 0.369234 
-0.99304 -0.0377492 0.373481 
-0.991978 -0.035154 0.378082 
-0.991153 -0.0324407 0.382446 
-0.990091 -0.0299634 0.387047 
-0.989855 -0.024537 0.38917 
-0.991034 -0.0152176 0.387165 
-0.980889 -0.0201722 0.42456 
-0.979474 -0.0182848 0.430695 
-0.998113 -0.0696001 0.337855 
-0.997169 -0.0667689 0.342102 
-0.996461 -0.0635838 0.345523 
-0.995989 -0.0600449 0.34859 
-0.995635 -0.0561519 0.350949 
-0.995163 -0.052377 0.353427 
-0.994574 -0.0487201 0.356376 
-0.994102 -0.0452991 0.359326 
-0.993393 -0.0421139 0.362982 
-0.99245 -0.0395187 0.367465 
-0.991389 -0.0369234 0.372066 
-0.990327 -0.0343282 0.376666 
-0.990562 -0.0292556 0.377138 
-0.991153 -0.0235932 0.376548 
-0.989501 -0.0221777 0.383272 
-0.987378 -0.0217058 0.391176 
-0.986198 -0.0194644 0.396485 
-0.984546 -0.0180488 0.403091 
-0.981951 -0.0184028 0.412764 
-0.97912 -0.0191105 0.423027 
-0.977233 -0.0181668 0.430341 
-0.995754 -0.0727852 0.327002 
-0.994927 -0.0653533 0.332311 
-0.994456 -0.0569777 0.336204 
-0.993393 -0.0496638 0.34163 
-0.991978 -0.0435295 0.349062 
-0.990327 -0.0399905 0.356376 
-0.988911 -0.0381031 0.361921 
-0.968739 -0.0218237 0.442492 
-0.967441 -0.0193464 0.447682 
-0.966261 -0.0168691 0.452636 
-0.97157 -0.279462 0.351657 
-0.970273 -0.277574 0.357201 
-0.968739 -0.275923 0.362864 
-0.967323 -0.274271 0.368645 
-0.965908 -0.27262 0.374307 
-0.96461 -0.270497 0.379615 
-0.963313 -0.268373 0.384806 
-0.961896 -0.266486 0.390351 
-0.960599 -0.264126 0.395305 
-0.959537 -0.261531 0.399787 
-0.958358 -0.259054 0.404624 
-0.99422 -0.0776217 0.313318 
-0.992922 -0.0708977 0.319571 
-0.99245 -0.0626401 0.3237 
-0.99186 -0.0546184 0.328065 
-0.990917 -0.0497817 0.333136 
-0.989855 -0.0471865 0.337501 
-0.988675 -0.0449452 0.342574 
-0.979945 -0.0298454 0.379498 
-0.980536 -0.0218237 0.379498 
-0.979474 -0.0146278 0.385396 
-0.980536 -0.00566238 0.383863 
-0.957061 -0.0152176 0.468798 
-0.971217 -0.283827 0.341158 
-0.970037 -0.281703 0.346349 
-0.969093 -0.278755 0.350241 
-0.967913 -0.276513 0.355314 
-0.965908 -0.276159 0.362864 
-0.964021 -0.275569 0.369942 
-0.962487 -0.273799 0.375722 
-0.961189 -0.271795 0.381031 
-0.959892 -0.26967 0.386222 
-0.958712 -0.267311 0.391059 
-0.957533 -0.264716 0.395777 
-0.95647 -0.262357 0.400614 
-0.955291 -0.259762 0.405332 
-0.954229 -0.257166 0.409815 
-0.953168 -0.254454 0.414298 
-0.952105 -0.251857 0.418898 
-0.950926 -0.249381 0.423735 
-0.939484 -0.228973 0.471393 
-0.939365 -0.224254 0.473045 
-0.939248 -0.219299 0.474225 
-0.939365 -0.214108 0.475168 
-0.939484 -0.208918 0.476112 
-0.939365 -0.203964 0.477527 
-0.992096 -0.0785655 0.310133 
-0.991506 -0.0751446 0.313318 
-0.991034 -0.0714876 0.315913 
-0.990681 -0.0674767 0.318155 
-0.990445 -0.0633479 0.32016 
-0.990327 -0.0591011 0.321812 
-0.990091 -0.0549723 0.323936 
-0.989501 -0.0516692 0.327238 
-0.988558 -0.048956 0.331367 
-0.987378 -0.0465967 0.336322 
-0.978294 -0.027722 0.375486 
-0.979709 -0.0204082 0.372302 
-0.980417 -0.0143919 0.371122 
-0.980417 -0.0095553 0.372066 
-0.980653 -0.00448274 0.372538 
-0.981479 0.00188749 0.370885 
-0.982423 0.00837562 0.368998 
-0.954111 -0.0176949 0.46809 
-0.953404 -0.0142739 0.471511 
-0.968621 -0.280759 0.343753 
-0.967205 -0.27663 0.350006 
-0.965908 -0.274743 0.355433 
-0.963902 -0.27439 0.362982 
-0.962015 -0.273446 0.369942 
-0.960717 -0.271559 0.375369 
-0.95942 -0.269435 0.380559 
-0.957533 -0.266014 0.388109 
-0.955055 -0.261178 0.397783 
-0.952696 -0.256458 0.407573 
-0.950573 -0.25115 0.416775 
-0.937478 -0.214345 0.474461 
-0.937596 -0.206559 0.475993 
-0.989855 -0.0751446 0.31202 
-0.98903 -0.0673587 0.316857 
-0.988675 -0.0588652 0.320396 
-0.98785 -0.0515513 0.325704 
-0.98608 -0.0458888 0.333845 
-0.976289 -0.0259526 0.375841 
-0.977941 -0.0181668 0.37183 
-0.979002 -0.00908342 0.37006 
-0.978884 -0.00235936 0.372302 
-0.979474 0.00353898 0.37124 
-0.980536 0.0101452 0.369117 
-0.951988 -0.0135661 0.469269 
-0.964021 -0.301167 0.340686 
-0.964492 -0.290197 0.34163 
-0.96461 -0.279934 0.3434 
-0.962841 -0.274154 0.351421 
-0.959773 -0.273564 0.362864 
-0.95647 -0.273328 0.374661 
-0.953521 -0.269906 0.386222 
-0.950926 -0.265424 0.396485 
-0.948567 -0.260706 0.406394 
-0.946208 -0.255633 0.415949 
-0.944084 -0.250442 0.425268 
-0.942196 -0.244426 0.433526 
-0.940073 -0.239 0.442845 
-0.937832 -0.236405 0.452047 
-0.934647 -0.235697 0.464079 
-0.933113 -0.228854 0.471393 
-0.932169 -0.220833 0.476937 
-0.932052 -0.211041 0.479769 
-0.987378 -0.0760882 0.30624 
-0.986669 -0.0684204 0.310841 
-0.986316 -0.059691 0.314144 
-0.985372 -0.052377 0.319571 
-0.983721 -0.0465967 0.327357 
-0.981598 -0.034682 0.338563 
-0.980181 -0.0145099 0.349298 
-0.980417 0.00235931 0.352366 
-0.980772 0.0122685 0.353545 
-0.981126 0.0220597 0.354842 
-0.945617 -0.0100271 0.478943 
-0.961307 -0.314026 0.320869 
-0.962133 -0.30223 0.320514 
-0.961661 -0.293382 0.324407 
-0.961425 -0.284299 0.32771 
-0.961189 -0.274979 0.330896 
-0.962015 -0.265424 0.329597 
-0.964846 -0.254099 0.321812 
-0.967795 -0.242538 0.313436 
-0.970273 -0.231921 0.306476 
-0.926389 -0.301994 0.452164 
-0.925564 -0.295977 0.456412 
-0.926625 -0.280995 0.45594 
-0.928867 -0.255869 0.453698 
-0.928512 -0.241359 0.458416 
-0.926153 -0.236286 0.468444 
-0.924502 -0.229798 0.476229 
-0.923558 -0.224254 0.481302 
-0.983602 -0.0821045 0.293264 
-0.983013 -0.0742008 0.297747 
-0.982777 -0.0652353 0.300578 
-0.981951 -0.0575676 0.305415 
-0.9803 -0.0517872 0.313318 
-0.97912 -0.0369234 0.321458 
-0.978648 -0.0126224 0.329716 
-0.978766 0.00365694 0.333609 
-0.980536 0.0139201 0.32948 
-0.982777 0.0261886 0.324289 
-0.983131 0.0362156 0.325233 
-0.982777 0.0444733 0.329126 
-0.983131 0.0519052 0.329597 
-0.932052 -0.0128583 0.502536 
-0.930635 -0.00578038 0.509496 
-0.930518 0.00353898 0.512682 
-0.931697 0.0152177 0.511266 
-0.956825 -0.322638 0.304707 
-0.958004 -0.309897 0.303409 
-0.958004 -0.302465 0.305296 
-0.958712 -0.29232 0.30506 
-0.961779 -0.272974 0.2981 
-0.965082 -0.25693 0.289844 
-0.967559 -0.244072 0.283827 
-0.968739 -0.231685 0.282175 
-0.969683 -0.220007 0.281586 
-0.970626 -0.210805 0.280406 
-0.979356 -0.118674 0.270968 
-0.979592 -0.108765 0.272502 
-0.979945 -0.0987377 0.273682 
-0.980064 -0.0891825 0.275569 
-0.979592 -0.0808069 0.279226 
-0.980181 -0.0706618 0.28017 
-0.9803 -0.0609886 0.281821 
-0.980181 -0.0519051 0.284416 
-0.980653 -0.0421139 0.285715 
-0.980889 -0.0324407 0.28713 
-0.980889 -0.0233573 0.289608 
-0.980653 -0.0145099 0.292556 
-0.980653 -0.0053085 0.294798 
-0.980772 0.003775 0.297157 
-0.980653 0.0126225 0.299752 
-0.980889 0.0219418 0.301758 
-0.9803 0.0300814 0.305532 
-0.9803 0.0391649 0.30801 
-0.980536 0.0487201 0.309425 
-0.980417 0.0573316 0.312492 
-0.980653 0.0667689 0.31379 
-0.980889 0.0763242 0.315324 
-0.980653 0.0846998 0.318627 
-0.92108 0.0012977 0.517046 
-0.92226 0.0161614 0.516339 
-0.923911 0.0286658 0.513507 
-0.925209 0.0405803 0.511619 
-0.926743 0.0526129 0.509496 
-0.963194 0.197829 0.41241 
-0.960953 0.20302 0.422084 
-0.960717 0.211868 0.424796 
-0.959065 0.218237 0.432346 
-0.957768 0.225197 0.438599 
-0.952577 0.223664 0.457355 
-0.94951 0.22331 0.46868 
-0.952105 -0.324053 0.294562 
-0.953285 -0.311431 0.293264 
-0.953168 -0.304235 0.29527 
-0.965436 -0.23027 0.268019 
-0.96638 -0.218592 0.267311 
-0.966733 -0.20821 0.268609 
-0.967795 -0.196532 0.267902 
-0.968975 -0.1845 0.266604 
-0.970154 -0.172349 0.264952 
-0.971098 -0.160788 0.264363 
-0.971217 -0.150997 0.26625 
-0.97157 -0.14097 0.267547 
-0.97216 -0.130353 0.268019 
-0.972749 -0.119736 0.268609 
-0.973457 -0.109119 0.268963 
-0.974047 -0.0983839 0.269081 
-0.974519 -0.0881208 0.269906 
-0.974991 -0.0780937 0.271087 
-0.975227 -0.0684204 0.272738 
-0.975346 -0.0588652 0.274507 
-0.975463 -0.0495458 0.27663 
-0.975581 -0.0402265 0.278755 
-0.975581 -0.0310252 0.281114 
-0.975463 -0.0221777 0.283709 
-0.975346 -0.0132122 0.28654 
-0.975227 -0.00424676 0.289135 
-0.97511 0.00448274 0.291967 
-0.97511 0.0133302 0.294679 
-0.974991 0.0222956 0.297157 
-0.974873 0.0311431 0.299988 
-0.97511 0.0405803 0.301639 
-0.975699 0.0506076 0.302348 
-0.975699 0.059691 0.304589 
-0.975581 0.0685384 0.307066 
-0.975227 0.076796 0.310723 
-0.974401 0.0841099 0.315913 
-0.974047 0.0924852 0.319216 
-0.973812 0.101215 0.32193 
-0.973693 0.109826 0.324879 
-0.973693 0.118674 0.327474 
-0.973693 0.127639 0.329716 
-0.973457 0.136251 0.332664 
-0.97334 0.142739 0.334553 
-0.920373 0.0765601 0.511619 
-0.92108 0.0871771 0.511738 
-0.923204 0.0979122 0.506783 
-0.925564 0.106405 0.500649 
-0.927923 0.114899 0.494397 
-0.960953 0.186268 0.391412 
-0.959184 0.192285 0.399551 
-0.956589 0.197357 0.410876 
-0.953521 0.204672 0.423971 
-0.951162 0.210688 0.433643 
-0.94951 0.217176 0.441194 
-0.947151 0.222602 0.450749 
-0.942904 0.224844 0.467146 
-0.940545 0.227911 0.476701 
-0.946797 -0.327002 0.286304 
-0.947741 -0.314852 0.285715 
-0.948212 -0.306476 0.286186 
-0.961543 -0.220479 0.258228 
-0.962251 -0.209508 0.258582 
-0.962605 -0.199009 0.259526 
-0.963194 -0.188392 0.260234 
-0.963666 -0.178011 0.261295 
-0.963785 -0.168455 0.263418 
-0.964492 -0.157368 0.263418 
-0.965318 -0.146396 0.263418 
-0.966144 -0.135071 0.262946 
-0.966969 -0.123982 0.262946 
-0.967795 -0.112894 0.262593 
-0.968621 -0.101805 0.262239 
-0.969329 -0.0911879 0.262475 
-0.969683 -0.0811609 0.263654 
-0.969918 -0.0714876 0.265306 
-0.970037 -0.0621682 0.26743 
-0.97039 -0.052259 0.268845 
-0.97039 -0.0431756 0.271204 
-0.97039 -0.0339743 0.273563 
-0.97039 -0.0248908 0.275923 
-0.97039 -0.0159254 0.278636 
-0.97039 -0.00684203 0.280995 
-0.97039 0.00224136 0.283355 
-0.97039 0.0110888 0.28595 
-0.970037 0.0197004 0.289253 
-0.969918 0.0284299 0.292084 
-0.969801 0.0372774 0.294679 
-0.969918 0.0465966 0.296568 
-0.970509 0.0563879 0.297511 
-0.97039 0.0653534 0.299988 
-0.97039 0.0743187 0.302348 
-0.970154 0.0829303 0.305415 
-0.969093 0.0898901 0.311077 
-0.968621 0.0981481 0.314852 
-0.968385 0.106524 0.318037 
-0.968149 0.114899 0.321341 
-0.967795 0.123157 0.324879 
-0.967559 0.131768 0.327946 
-0.967205 0.140144 0.331249 
-0.966852 0.148519 0.334434 
-0.966616 0.157013 0.337501 
-0.96638 0.165507 0.340569 
-0.966144 0.173882 0.343636 
-0.963785 0.17754 0.353545 
-0.959301 0.176477 0.37006 
-0.956706 0.180135 0.37997 
-0.955999 0.18792 0.38457 
-0.954936 0.192875 0.389879 
-0.94373 0.194645 0.431639 
-0.945264 0.206441 0.428689 
-0.942904 0.21057 0.438244 
-0.940545 0.213637 0.447446 
-0.937714 0.219299 0.459243 
-0.934175 0.227439 0.474106 
-0.932524 0.236169 0.482364 
-0.941135 -0.330305 0.272974 
-0.942079 -0.318273 0.272502 
-0.942079 -0.310841 0.274154 
-0.895482 -0.39849 0.42055 
-0.952341 -0.251032 0.251504 
-0.95246 -0.241241 0.253627 
-0.953404 -0.229562 0.253038 
-0.955999 -0.214345 0.247494 
-0.957061 -0.202548 0.246667 
-0.957297 -0.192521 0.248201 
-0.958004 -0.181668 0.248673 
-0.95824 -0.171877 0.250442 
-0.958004 -0.162794 0.25351 
-0.958712 -0.15194 0.253627 
-0.959656 -0.14038 0.25292 
-0.960481 -0.129409 0.252802 
-0.961307 -0.118438 0.252684 
-0.962487 -0.106641 0.251268 
-0.96343 -0.0954347 0.250678 
-0.963902 -0.0854076 0.251858 
-0.964021 -0.073611 0.254571 
-0.963194 -0.0639378 0.260234 
-0.963313 -0.0545004 0.262239 
-0.96343 -0.0451811 0.264363 
-0.963549 -0.0358617 0.266604 
-0.963549 -0.0266604 0.268845 
-0.963666 -0.017459 0.271087 
-0.963549 -0.00849355 0.273682 
-0.963549 0.000353949 0.276394 
-0.963549 0.00943733 0.278755 
-0.963666 0.0185207 0.280995 
-0.963666 0.0276041 0.283355 
-0.96343 0.0363336 0.286304 
-0.963194 0.0449451 0.289372 
-0.963785 0.0547364 0.290197 
-0.964138 0.0645276 0.291259 
-0.963902 0.073139 0.294207 
-0.964138 0.0823404 0.296096 
-0.963902 0.0909522 0.299163 
-0.962959 0.100271 0.305179 
-0.962723 0.111124 0.308718 
-0.962487 0.119618 0.311903 
-0.962369 0.128347 0.314498 
-0.962251 0.139083 0.318037 
-0.961543 0.151233 0.323581 
-0.960717 0.160906 0.329126 
-0.959892 0.168455 0.334081 
-0.95883 0.177776 0.340215 
-0.957414 0.186387 0.347529 
-0.955999 0.192757 0.354606 
-0.956706 0.20302 0.354253 
-0.939484 0.21057 0.419606 
-0.941135 0.222485 0.415831 
-0.939955 0.229562 0.421965 
-0.93854 0.236405 0.428572 
-0.922378 0.240534 0.489088 
-0.908812 -0.470803 0.310016 
-0.905037 -0.464669 0.325587 
-0.901263 -0.457945 0.340569 
-0.899257 -0.452519 0.349416 
-0.935355 -0.328536 0.251032 
-0.93736 -0.311667 0.247847 
-0.939601 -0.296685 0.243482 
-0.940899 -0.281703 0.242538 
-0.942315 -0.264244 0.242066 
-0.943494 -0.247139 0.242185 
-0.944674 -0.23027 0.242185 
-0.946444 -0.214581 0.240062 
-0.949039 -0.199481 0.234399 
-0.950101 -0.185679 0.234517 
-0.950809 -0.169989 0.235933 
-0.950454 -0.156659 0.240651 
-0.949628 -0.14439 0.246786 
-0.954583 -0.101569 0.240179 
-0.954347 -0.0881208 0.24419 
-0.953757 -0.0757343 0.250089 
-0.95647 0.0693641 0.27958 
-0.95647 0.0826944 0.283355 
-0.956116 0.0953171 0.28831 
-0.952813 0.102985 0.301994 
-0.952577 0.113719 0.305651 
-0.954583 0.123746 0.301286 
-0.956589 0.136015 0.297393 
-0.955763 0.14793 0.303528 
-0.954936 0.159844 0.309425 
-0.953049 0.169753 0.319099 
-0.951752 0.180842 0.326648 
-0.951044 0.192875 0.332311 
-0.949865 0.204081 0.339624 
-0.948095 0.214581 0.348473 
-0.946325 0.224844 0.357792 
-0.945146 0.236286 0.364988 
-0.944202 0.245842 0.370768 
-0.941843 0.253274 0.381031 
-0.940663 0.264716 0.387991 
-0.939129 0.273446 0.395777 
-0.909638 0.248555 0.496756 
-0.921552 -0.390823 0.232866 
-0.922496 -0.373835 0.233927 
-0.924502 -0.354253 0.231449 
-0.926743 -0.334434 0.228501 
-0.928748 -0.315442 0.226378 
-0.930282 -0.297747 0.225905 
-0.931108 -0.28135 0.227203 
-0.931697 -0.265542 0.228973 
-0.932405 -0.249853 0.230978 
-0.932524 -0.235225 0.234163 
-0.93276 -0.225197 0.23605 
-0.940545 -0.175415 0.220951 
-0.941488 -0.159608 0.221894 
-0.942551 -0.145807 0.221894 
-0.945028 -0.103574 0.224018 
-0.944674 -0.0859974 0.230034 
-0.94314 -0.0775038 0.237584 
-0.946561 0.083874 0.270261 
-0.946325 0.0990918 0.275097 
-0.946797 0.108765 0.276041 
-0.946679 0.134954 0.283709 
-0.945264 0.148047 0.292084 
-0.944438 0.161967 0.298927 
-0.942668 0.167748 0.307066 
-0.938068 0.2239 0.338327 
-0.937714 0.241005 0.344225 
-0.93618 0.253863 0.353191 
-0.934883 0.267194 0.36133 
-0.936889 0.285479 0.359207 
-0.93618 0.297511 0.364988 
-0.933703 0.306948 0.376194 
-0.929456 0.316032 0.393535 
-0.928512 0.327946 0.399906 
-0.90952 -0.397664 0.215997 
-0.910935 -0.377138 0.21635 
-0.913531 -0.356612 0.212693 
-0.914711 -0.337029 0.213873 
-0.914711 -0.324761 0.21694 
-0.82246 -0.412646 0.519877 
-0.930046 -0.158665 0.206795 
-0.931226 -0.142503 0.207148 
-0.933349 -0.124218 0.204317 
-0.934411 -0.106052 0.205497 
-0.934175 -0.0905981 0.210688 
-0.813849 -0.304235 0.580748 
-0.813024 -0.290315 0.587708 
-0.815855 -0.267902 0.583579 
-0.820101 -0.218237 0.582281 
-0.819276 -0.169989 0.599386 
-0.817625 -0.145099 0.612599 
-0.81845 -0.133656 0.613306 
-0.935355 0.0976763 0.258818 
-0.936889 0.115961 0.258228 
-0.93854 0.13401 0.25752 
-0.937478 0.149699 0.26566 
-0.935591 0.157485 0.274271 
-0.826236 0.00613423 0.623098 
-0.930518 0.312139 0.334789 
-0.93099 0.326176 0.337148 
-0.937125 0.348944 0.322166 
-0.932288 0.350949 0.339624 
-0.922024 0.343046 0.37301 
-0.918604 0.351185 0.387283 
-0.914947 0.363336 0.40368 
-0.912233 0.37702 0.416893 
-0.899375 -0.383862 0.194055 
-0.901027 -0.361449 0.19429 
-0.901616 -0.340569 0.198065 
-0.900791 -0.330305 0.203845 
-0.802407 -0.419842 0.525539 
-0.805238 -0.402501 0.520113 
-0.919193 -0.144509 0.189454 
-0.922142 -0.122449 0.185325 
-0.92285 -0.102513 0.188038 
-0.921671 -0.0935472 0.194644 
-0.802524 -0.293854 0.559868 
-0.801816 -0.274507 0.567889 
-0.801699 -0.254099 0.57426 
-0.802171 -0.232512 0.578625 
-0.80276 -0.215997 0.581337 
-0.803114 -0.197357 0.585349 
-0.803822 -0.163029 0.593017 
-0.805002 -0.140734 0.595729 
-0.804647 -0.126105 0.601038 
-0.926271 0.111478 0.235814 
-0.92804 0.129881 0.234753 
-0.927568 0.144273 0.240651 
-0.810192 0.0218238 0.621918 
-0.812434 0.0427038 0.619677 
-0.809012 0.0495459 0.633714 
-0.928748 0.345287 0.292792 
-0.927097 0.359797 0.302701 
-0.925209 0.371948 0.312492 
-0.920844 0.37643 0.329008 
-0.914828 0.374543 0.349416 
-0.908223 0.371948 0.371594 
-0.902796 0.375369 0.391294 
-0.899257 0.38575 0.406394 
-0.8956 0.396013 0.42232 
-0.88805 -0.365224 0.173056 
-0.888286 -0.345523 0.177893 
-0.88746 -0.335378 0.183673 
-0.783178 -0.52318 0.494633 
-0.781408 -0.505722 0.506193 
-0.780819 -0.480123 0.515158 
-0.782235 -0.444968 0.519995 
-0.782471 -0.417719 0.526719 
-0.781291 -0.407219 0.534151 
-0.90893 -0.123274 0.167512 
-0.909284 -0.104282 0.171641 
-0.909755 -0.0895364 0.173882 
-0.782235 -0.281586 0.566121 
-0.781527 -0.262121 0.574024 
-0.915064 0.117966 0.213991 
-0.915064 0.139672 0.220243 
-0.913177 0.151705 0.23027 
-0.79639 0.0764421 0.618379 
-0.79875 0.099681 0.616963 
-0.799221 0.117377 0.620266 
-0.917778 0.340215 0.268019 
-0.916244 0.35909 0.2784 
-0.913531 0.374189 0.292084 
-0.911761 0.384334 0.301286 
-0.881208 0.403209 0.41182 
-0.877197 0.411112 0.427864 
-0.873422 -0.347646 0.154654 
-0.764893 -0.559514 0.468916 
-0.76619 -0.513743 0.477763 
-0.763595 -0.494869 0.492391 
-0.762416 -0.481421 0.500295 
-0.893005 -0.131178 0.148991 
-0.893122 -0.107939 0.154771 
-0.89442 -0.0850536 0.157013 
-0.895482 -0.0717235 0.157013 
-0.900436 0.105697 0.190633 
-0.899729 0.125988 0.199245 
-0.898902 0.144155 0.207148 
-0.901263 0.165389 0.205261 
-0.903622 0.182022 0.202077 
-0.776572 -0.00483662 0.58936 
-0.777987 0.017459 0.590421 
-0.779521 0.0397546 0.591365 
-0.779875 0.0586292 0.595848 
-0.774803 0.0863513 0.621092 
-0.777634 0.107586 0.617671 
-0.906099 0.327593 0.235814 
-0.904565 0.346349 0.246314 
-0.902324 0.357792 0.257402 
-0.900672 0.386811 0.27144 
-0.9002 0.405096 0.278047 
-0.858913 0.421139 0.423853 
-0.852542 0.428217 0.448154 
-0.856082 -0.332193 0.134718 
-0.857969 -0.314026 0.133774 
-0.740946 -0.52495 0.471983 
-0.874484 -0.140262 0.127875 
-0.874956 -0.123629 0.131414 
-0.878494 -0.073611 0.133538 
-0.880146 -0.0502537 0.134718 
-0.882506 -0.0074319 0.139554 
-0.884275 0.0550902 0.151705 
-0.883803 0.0969685 0.165507 
-0.883331 0.119736 0.173646 
-0.88746 0.167394 0.173528 
-0.890291 0.191577 0.171169 
-0.892297 0.21812 0.172231 
-0.893831 0.245606 0.175534 
-0.894774 0.272148 0.180135 
-0.895718 0.298572 0.184617 
-0.895482 0.323228 0.192639 
-0.893122 0.34458 0.206795 
-0.894184 0.366875 0.209508 
-0.773033 0.219417 0.580512 
-0.887814 0.415949 0.245724 
-0.887343 0.43388 0.252684 
-0.831781 0.441901 0.443435 
-0.836853 0.473045 0.435532 
-0.839684 -0.307656 0.105816 
-0.841453 -0.287602 0.106052 
-0.704966 -0.560104 0.486021 
-0.855255 -0.148874 0.101215 
-0.857025 -0.120443 0.103692 
-0.859266 -0.0910699 0.104518 
-0.860092 -0.062876 0.110298 
-0.862451 -0.031615 0.11136 
-0.862687 -0.00483662 0.118674 
-0.863631 0.0231214 0.123982 
-0.865282 0.0522591 0.126932 
-0.86658 0.0805709 0.131061 
-0.867996 0.108883 0.134835 
-0.869175 0.136605 0.138964 
-0.870355 0.164209 0.143211 
-0.871889 0.191931 0.14675 
-0.875074 0.222366 0.145216 
-0.87531 0.247729 0.152412 
-0.874956 0.26389 0.158547 
-0.877787 0.305415 0.161495 
-0.876135 0.329833 0.17459 
-0.876018 0.356376 0.182848 
-0.875428 0.380441 0.191695 
-0.874248 0.403209 0.202902 
-0.872242 0.425151 0.216114 
-0.872832 0.450513 0.221777 
-0.868822 0.469741 0.241241 
-0.8063 0.457945 0.446974 
-0.822696 0.518226 0.410051 
-0.822224 -0.285007 0.0740828 
-0.825646 -0.250325 0.073611 
-0.827769 -0.220597 0.0754984 
-0.832016 -0.189099 0.0710157 
-0.835319 -0.157839 0.069954 
-0.836263 -0.128819 0.0756163 
-0.837089 -0.100389 0.0813967 
-0.837561 -0.0705438 0.0889465 
-0.839448 -0.0403445 0.0915418 
-0.843459 -0.00861155 0.0877669 
-0.844874 0.0114428 0.0891825 
-0.847116 0.0737289 0.100861 
-0.84629 0.0936647 0.109827 
-0.857261 0.240534 0.11832 
-0.859974 0.26743 0.117966 
-0.861036 0.293736 0.122449 
-0.859266 0.313554 0.134599 
-0.71865 0.244426 0.583461 
-0.856435 0.474461 0.193464 
-0.853721 0.493335 0.208446 
-0.847116 0.507255 0.234989 
-0.846408 0.530848 0.244426 
-0.841571 0.547364 0.266014 
-0.837442 0.565058 0.285124 
-0.829539 0.570367 0.313083 
-0.818097 0.569895 0.350596 
-0.805356 -0.243836 0.0411702 
-0.808187 -0.21635 0.0404624 
-0.812669 -0.182494 0.0366875 
-0.813024 -0.159372 0.0427038 
-0.823876 0.0152177 0.0614604 
-0.827533 0.0477763 0.059337 
-0.827769 0.0738469 0.0666509 
-0.842043 0.272502 0.0826943 
-0.842279 0.297275 0.0898903 
-0.676183 0.243129 0.621328 
-0.840509 0.506075 0.16185 
-0.839448 0.530731 0.173056 
-0.832724 0.544532 0.199599 
-0.825056 0.553616 0.227793 
-0.741064 0.477292 0.479887 
-0.746373 0.49015 0.466203 
-0.814439 0.595965 0.276513 
-0.805592 0.602689 0.30742 
-0.795564 0.595729 0.338445 
-0.791671 -0.187095 0.000117919 
-0.792852 -0.166923 0.00283116 
-0.808187 0.0442374 0.020762 
-0.807951 0.0693641 0.0293735 
-0.82246 0.273328 0.0484841 
-0.821753 0.304589 0.0612245 
-0.822815 0.324289 0.0640556 
-0.823994 0.503008 0.118556 
-0.821163 0.529315 0.136015 
-0.819629 0.547128 0.146514 
-0.692698 0.42456 0.52141 
-0.701664 0.457119 0.501829 
-0.707561 0.480949 0.489442 
-0.70473 0.501121 0.505367 
-0.688569 0.494397 0.556447 
-0.659785 0.467501 0.642444 
-0.775982 0.622862 0.313083 
-0.770319 0.624986 0.332311 
-0.770202 -0.196886 -0.0368055 
-0.771146 -0.166451 -0.0296095 
-0.774095 -0.138492 -0.0301994 
-0.786128 0.0345641 -0.0122686 
-0.785066 0.0516692 -0.00318507 
-0.787897 0.0857614 -0.000707778 
-0.79002 0.108175 -0.000117994 
-0.800755 0.261178 0.0161614 
-0.800165 0.278636 0.0234753 
-0.803704 0.33585 0.0316149 
-0.80512 0.355668 0.0337383 
-0.804058 0.484606 0.0799811 
-0.801816 0.50867 0.0949628 
-0.801699 0.555032 0.11077 
-0.801227 0.575204 0.118792 
-0.661555 0.444615 0.525894 
-0.676655 0.488616 0.489913 
-0.682788 0.514333 0.477881 
-0.685856 0.548779 0.479297 
-0.752625 0.650112 0.299044 
-0.748614 -0.191577 -0.0681845 
-0.754512 -0.131886 -0.0671228 
-0.75699 -0.102277 -0.0652354 
-0.761355 -0.0486021 -0.0613425 
-0.763595 -0.0160434 -0.0574496 
-0.765719 0.0171051 -0.0528489 
-0.767253 0.0491919 -0.0468326 
-0.768079 0.0817507 -0.038339 
-0.770202 0.11655 -0.0335025 
-0.772443 0.149345 -0.0297276 
-0.774213 0.181078 -0.0250089 
-0.777279 0.214463 -0.0232393 
-0.779875 0.246903 -0.0206441 
-0.781291 0.27899 -0.01392 
-0.782235 0.312375 -0.00554441 
-0.782942 0.343164 0.00259523 
-0.785419 0.376194 0.00613422 
-0.785066 0.407102 0.0178129 
-0.786009 0.439778 0.0257167 
-0.786481 0.47163 0.0351539 
-0.785655 0.501593 0.0478943 
-0.784475 0.53132 0.0614604 
-0.782706 0.560104 0.0769139 
-0.782471 0.591011 0.0877669 
-0.780465 0.617671 0.103102 
-0.66238 0.567064 0.457827 
-0.664622 0.590421 0.458652 
-0.733161 0.681255 0.27321 
-0.729975 -0.166687 -0.10499 
-0.731037 -0.134363 -0.097322 
-0.73375 -0.101097 -0.0947269 
-0.736699 -0.0655892 -0.0918959 
-0.736463 -0.0379851 -0.0819866 
-0.741772 0.000589761 -0.0852897 
-0.742125 0.0222956 -0.0789195 
-0.751799 0.154654 -0.0640557 
-0.754276 0.181196 -0.0628761 
-0.758051 0.228737 -0.0583933 
-0.757343 0.254453 -0.0471865 
-0.757462 0.293264 -0.0342102 
-0.761708 0.352838 -0.0271322 
-0.765601 0.400614 -0.0226496 
-0.768904 0.436829 -0.0201723 
-0.767371 0.464905 -0.00554441 
-0.762652 0.624986 0.0631119 
-0.758051 0.646927 0.0848177 
-0.755338 0.670874 0.101333 
-0.751091 0.693406 0.122449 
-0.74307 0.704849 0.150878 
-0.732334 0.712162 0.186032 
-0.722661 0.720656 0.218827 
-0.714757 0.72337 0.244072 
-0.715112 -0.0474225 -0.124572 
-0.719241 -0.00849355 -0.123865 
-0.718297 0.00872949 -0.115017 
-0.720656 0.0507254 -0.107703 
-0.726318 0.132359 -0.0969686 
-0.732689 0.190752 -0.0961424 
-0.73729 0.226023 -0.0977938 
-0.735991 0.246078 -0.087295 
-0.747434 0.432346 -0.0566238 
-0.748496 0.45299 -0.052731 
-0.743778 0.657426 0.031261 
-0.742951 0.686917 0.0440014 
-0.737407 0.704023 0.0668868 
-0.726908 0.71865 0.10381 
-0.717235 0.736346 0.138847 
-0.708033 0.7413 0.168574 
-0.692816 0.737407 0.212811 
-0.679722 0.733514 0.251386 
-0.659078 0.719005 0.309189 
-0.643388 0.709213 0.353545 
-0.631355 0.702843 0.387637 
-0.695175 -0.0253628 -0.161967 
-0.695765 0.00271318 -0.153828 
-0.712045 0.210805 -0.129763 
-0.713578 0.239118 -0.124454 
-0.723134 0.424088 -0.0875309 
-0.724431 0.458299 -0.0791554 
-0.726908 0.482364 -0.0779757 
-0.726318 0.659667 -0.0155715 
-0.723487 0.688569 0.00318507 
-0.721364 0.703432 0.0143919 
-0.677598 0.763831 0.165153 
-0.670167 0.767253 0.188156 
-0.65082 0.754512 0.241359 
-0.619559 0.731627 0.326531 
-0.606582 0.72856 0.364633 
-0.670402 -0.0365695 -0.193347 
-0.675593 0.0247729 -0.187684 
-0.678306 0.0475404 -0.187095 
-0.685856 0.19724 -0.156187 
-0.687744 0.21989 -0.153474 
-0.692344 0.258464 -0.153474 
-0.694232 0.278872 -0.151823 
-0.698597 0.410759 -0.117494 
-0.698242 0.428572 -0.110062 
-0.704613 0.490858 -0.106524 
-0.707325 0.521293 -0.103693 
-0.708859 0.567536 -0.0922493 
-0.709921 0.596555 -0.0852897 
-0.704966 0.641972 -0.0550903 
-0.702725 0.664032 -0.0409343 
-0.701428 0.714876 -0.0184028 
-0.701545 0.733632 -0.0119146 
-0.649404 0.783886 0.156305 
-0.629468 0.777043 0.212339 
-0.598561 0.755338 0.295034 
-0.648225 -0.103574 -0.246431 
-0.649287 -0.069954 -0.237938 
-0.649994 -0.0371593 -0.228618 
-0.653533 -0.00200549 -0.226377 
-0.655656 0.0304353 -0.220951 
-0.659549 0.0653534 -0.219535 
-0.660021 0.0963782 -0.209626 
-0.661909 0.129763 -0.203256 
-0.664268 0.161378 -0.198537 
-0.666628 0.194645 -0.193228 
-0.668515 0.229209 -0.186504 
-0.67052 0.261767 -0.180842 
-0.673824 0.295741 -0.178129 
-0.673941 0.327002 -0.167276 
-0.675828 0.360505 -0.16067 
-0.677952 0.394007 -0.154536 
-0.678895 0.425622 -0.145571 
-0.67984 0.457355 -0.137077 
-0.68102 0.489088 -0.129055 
-0.684322 0.52318 -0.126578 
-0.684558 0.553616 -0.116669 
-0.68621 0.585349 -0.110181 
-0.688805 0.618026 -0.106169 
-0.688333 0.647045 -0.0941366 
-0.686564 0.674885 -0.0791554 
-0.683851 0.701781 -0.0615784 
-0.682435 0.729975 -0.0474225 
-0.682317 0.751917 -0.0389289 
-0.630648 0.805709 0.12646 
-0.609885 0.795683 0.182494 
-0.578388 0.7761 0.26625 
-0.626283 -0.103103 -0.269317 
-0.629704 -0.0694821 -0.267547 
-0.629704 -0.0402265 -0.257166 
-0.630412 -0.00979119 -0.248791 
-0.631827 0.0184028 -0.242538 
-0.639495 0.073139 -0.24419 
-0.642208 0.0988558 -0.242421 
-0.644214 0.167866 -0.223192 
-0.643034 0.188156 -0.212929 
-0.655067 0.311195 -0.202666 
-0.65719 0.335732 -0.199835 
-0.658723 0.378436 -0.188392 
-0.65778 0.399434 -0.178247 
-0.664032 0.539106 -0.145571 
-0.665919 0.56494 -0.141678 
-0.667336 0.610475 -0.129173 
-0.664858 0.633125 -0.11431 
-0.664386 0.766781 -0.0639378 
-0.660139 0.788723 -0.0440015 
-0.655303 0.805002 -0.024537 
-0.642563 0.814321 0.0141559 
-0.62475 0.820692 0.0660611 
-0.614722 0.826825 0.0961424 
-0.610358 -0.0822225 -0.295741 
-0.609296 -0.0611065 -0.285243 
-0.623923 0.10959 -0.264126 
-0.627109 0.138492 -0.262357 
-0.627817 0.165271 -0.254689 
-0.625929 0.178365 -0.24478 
-0.637962 0.333962 -0.22213 
-0.641382 0.361449 -0.221541 
-0.641855 0.386811 -0.213519 
-0.645983 0.564587 -0.16067 
-0.648932 0.593724 -0.158193 
-0.648343 0.618969 -0.147458 
-0.646573 0.631827 -0.137785 
-0.647162 0.786009 -0.0826944 
-0.647045 0.802171 -0.0760882 
-0.631002 0.848059 -0.0152177 
-0.61307 0.842043 0.031261 
-0.593489 -0.0803351 -0.322048 
-0.609177 0.129763 -0.288663 
-0.611183 0.156423 -0.284181 
-0.609413 0.169518 -0.274626 
-0.622744 0.351421 -0.24537 
-0.625339 0.377492 -0.242421 
-0.631119 0.584051 -0.182494 
-0.631827 0.608824 -0.175534 
-0.630176 0.6218 -0.166215 
-0.630766 0.804411 -0.100153 
-0.630766 0.829775 -0.0905979 
-0.624395 0.842869 -0.0685384 
-0.615901 0.847233 -0.0437655 
-0.609768 0.850065 -0.0261886 
-0.576619 -0.076678 -0.348118 
-0.592662 0.132595 -0.31438 
-0.593489 0.159255 -0.306476 
-0.59455 0.178601 -0.302348 
-0.605993 0.356494 -0.268138 
-0.607173 0.382565 -0.261413 
-0.608824 0.39967 -0.259172 
-0.614486 0.584523 -0.206205 
-0.614486 0.610122 -0.196532 
-0.614368 0.626518 -0.19028 
-0.615784 0.821753 -0.121034 
-0.614014 0.841925 -0.108647 
-0.561284 -0.0609886 -0.371948 
-0.565294 -0.0130942 -0.364869 
-0.571311 0.066651 -0.351068 
-0.573788 0.11773 -0.338799 
-0.574142 0.140262 -0.331249 
-0.576501 0.170344 -0.326176 
-0.579805 0.196886 -0.324997 
-0.587 0.347057 -0.288781 
-0.587236 0.371948 -0.280052 
-0.591247 0.399434 -0.279816 
-0.59337 0.419016 -0.278164 
-0.596555 0.574142 -0.228501 
-0.595848 0.597853 -0.217648 
-0.598089 0.624986 -0.213283 
-0.599505 0.646455 -0.209037 
-0.600566 0.807951 -0.150761 
-0.598915 0.828241 -0.138847 
-0.596437 0.845936 -0.125398 
-0.548189 -0.0404624 -0.395187 
-0.55161 0.00424683 -0.387519 
-0.554913 0.0672408 -0.372302 
-0.556329 0.110181 -0.359679 
-0.556683 0.130353 -0.353073 
-0.557391 0.149935 -0.347529 
-0.563171 0.189454 -0.347646 
-0.565884 0.213519 -0.345405 
-0.567418 0.229209 -0.343636 
-0.568597 0.255633 -0.336912 
-0.570013 0.303528 -0.322756 
-0.569069 0.336676 -0.308127 
-0.569541 0.35614 -0.301758 
-0.571664 0.383272 -0.297039 
-0.576973 0.417836 -0.297275 
-0.578742 0.436711 -0.294798 
-0.57945 0.560812 -0.249381 
-0.579214 0.582517 -0.240534 
-0.58464 0.646219 -0.230506 
-0.586174 0.667571 -0.226377 
-0.585467 0.797923 -0.174472 
-0.583815 0.818096 -0.162675 
-0.580866 0.837206 -0.147458 
-0.579569 0.85785 -0.136133 
-0.533797 -0.0325587 -0.414415 
-0.536275 -0.00849355 -0.411703 
-0.537455 0.0133302 -0.406276 
-0.53887 0.0356258 -0.401675 
-0.540521 0.0579214 -0.397311 
-0.542173 0.0800991 -0.392946 
-0.54182 0.101333 -0.384099 
-0.542645 0.124101 -0.377492 
-0.546183 0.148519 -0.376902 
-0.547717 0.170225 -0.372774 
-0.549015 0.193228 -0.367111 
-0.551846 0.218356 -0.364752 
-0.553616 0.239943 -0.361095 
-0.55338 0.260706 -0.352719 
-0.553734 0.282057 -0.345405 
-0.554796 0.302701 -0.340805 
-0.555739 0.324643 -0.33467 
-0.556093 0.347882 -0.326884 
-0.558099 0.371004 -0.322992 
-0.559632 0.393418 -0.318155 
-0.560694 0.415241 -0.312492 
-0.563879 0.437537 -0.311903 
-0.565176 0.459361 -0.306948 
-0.56376 0.479769 -0.295506 
-0.564704 0.50289 -0.289017 
-0.565766 0.526011 -0.282765 
-0.566002 0.548189 -0.274743 
-0.565058 0.569187 -0.26448 
-0.566121 0.590303 -0.259172 
-0.570131 0.61425 -0.259998 
-0.571192 0.6369 -0.253863 
-0.5719 0.659313 -0.247258 
-0.573552 0.682435 -0.242538 
-0.574849 0.705085 -0.23723 
-0.575321 0.726908 -0.229916 
-0.576147 0.749204 -0.223664 
-0.576501 0.761944 -0.219417 
-0.57249 0.786953 -0.199245 
-0.570603 0.805002 -0.187331 
-0.56848 0.817625 -0.177068 
-0.56553 0.861862 -0.152059 
-0.562935 0.877787 -0.139083 
-0.55102 0.881444 -0.10676 
-0.520231 -0.0191105 -0.431403 
-0.522119 0.00389285 -0.42751 
-0.522237 0.0239471 -0.419842 
-0.524006 0.0464787 -0.415713 
-0.525894 0.0691283 -0.41182 
-0.527781 0.0915415 -0.407927 
-0.529197 0.11313 -0.403091 
-0.530495 0.134482 -0.398019 
-0.53191 0.155834 -0.393182 
-0.53309 0.176949 -0.388227 
-0.534387 0.197829 -0.383154 
-0.536039 0.219299 -0.379143 
-0.540167 0.243954 -0.379851 
-0.540521 0.265307 -0.372419 
-0.539342 0.284652 -0.362274 
-0.541229 0.306123 -0.358971 
-0.542645 0.327002 -0.354842 
-0.542999 0.348118 -0.347529 
-0.543943 0.369942 -0.341513 
-0.544886 0.38976 -0.336086 
-0.545947 0.409461 -0.330896 
-0.546774 0.429044 -0.325469 
-0.55102 0.4524 -0.327003 
-0.55161 0.473163 -0.320278 
-0.549605 0.491094 -0.308363 
-0.550903 0.510912 -0.303999 
-0.552318 0.532382 -0.299044 
-0.553026 0.555032 -0.292203 
-0.553498 0.577327 -0.284652 
-0.55456 0.600094 -0.2784 
-0.555621 0.622862 -0.272384 
-0.556565 0.645394 -0.266014 
-0.557508 0.666038 -0.260351 
-0.560104 0.688215 -0.258228 
-0.560694 0.710156 -0.25115 
-0.560458 0.731273 -0.242185 
-0.56093 0.753214 -0.235107 
-0.561165 0.774684 -0.227203 
-0.560104 0.795092 -0.216468 
-0.558452 0.813377 -0.205025 
-0.5568 0.829775 -0.194172 
-0.555032 0.848059 -0.18273 
-0.5522 0.865518 -0.168574 
-0.549487 0.881326 -0.155126 
-0.546066 0.891353 -0.142385 
-0.534269 0.889938 -0.112657 
-0.507137 0.000943732 -0.448508 
-0.50867 0.0212339 -0.444615 
-0.51103 0.0503716 -0.438952 
-0.510558 0.0791553 -0.426566 
-0.510912 0.101333 -0.418898 
-0.513153 0.142031 -0.408399 
-0.520585 0.207974 -0.40085 
-0.526366 0.253155 -0.397547 
-0.528017 0.27439 -0.393535 
-0.53014 0.29987 -0.38917 
-0.527899 0.317683 -0.376666 
-0.526719 0.335025 -0.367111 
-0.537808 0.46514 -0.343872 
-0.540286 0.485903 -0.34163 
-0.542409 0.511974 -0.336912 
-0.539814 0.534505 -0.321341 
-0.53769 0.554088 -0.308363 
-0.536275 0.567064 -0.299635 
-0.546891 0.69954 -0.274154 
-0.548072 0.720302 -0.269199 
-0.54701 0.77091 -0.24655 
-0.545594 0.790963 -0.234871 
-0.543707 0.810664 -0.222249 
-0.541584 0.830365 -0.209154 
-0.53887 0.849593 -0.194644 
-0.536039 0.868822 -0.17978 
-0.534151 0.887224 -0.167866 
-0.529787 0.900083 -0.151469 
-0.492155 0.0181668 -0.463489 
-0.493217 0.0396367 -0.457945 
-0.49593 0.0652353 -0.454524 
-0.496048 0.088829 -0.44544 
-0.512918 0.274743 -0.413354 
-0.515513 0.298927 -0.41064 
-0.514805 0.320633 -0.400495 
-0.512563 0.330777 -0.390823 
-0.52495 0.48378 -0.360977 
-0.528253 0.509024 -0.359207 
-0.528843 0.531438 -0.351893 
-0.526602 0.550784 -0.338563 
-0.533326 0.718297 -0.288899 
-0.534624 0.740828 -0.283473 
-0.534387 0.761827 -0.274507 
-0.531674 0.780701 -0.259998 
-0.528489 0.790492 -0.248201 
-0.517636 0.883803 -0.184145 
-0.514922 0.901498 -0.170225 
-0.509968 0.910582 -0.154064 
-0.478118 0.0375133 -0.478117 
-0.481421 0.0639377 -0.47564 
-0.481656 0.0818686 -0.469152 
-0.501357 0.293854 -0.43329 
-0.501238 0.314262 -0.424796 
-0.514805 0.506547 -0.381974 
-0.517047 0.528725 -0.378672 
-0.515041 0.542999 -0.36829 
-0.522001 0.740356 -0.307184 
-0.522355 0.761944 -0.299516 
-0.519642 0.775511 -0.287483 
-0.499351 0.902206 -0.187095 
-0.495694 0.912233 -0.174 
-0.467972 0.052731 -0.49652 
-0.469269 0.0743187 -0.49133 
-0.469505 0.0863513 -0.487082 
-0.487201 0.286068 -0.450749 
-0.487437 0.305179 -0.443907 
-0.487318 0.323817 -0.436357 
-0.488734 0.336793 -0.434824 
-0.503008 0.508906 -0.401203 
-0.504306 0.531792 -0.395187 
-0.505014 0.546891 -0.390823 
-0.512682 0.742715 -0.332547 
-0.51103 0.760764 -0.321577 
-0.508553 0.774448 -0.309897 
-0.482246 0.90952 -0.192757 
-0.477645 0.918957 -0.177893 
-0.457001 0.0434116 -0.513035 
-0.458181 0.0609886 -0.509142 
-0.458299 0.076796 -0.503244 
-0.457709 0.0896542 -0.496756 
-0.47505 0.27958 -0.463489 
-0.475876 0.297629 -0.458771 
-0.475286 0.31379 -0.451103 
-0.477056 0.331013 -0.448508 
-0.478235 0.345642 -0.446031 
-0.491211 0.50348 -0.414887 
-0.492391 0.522708 -0.410287 
-0.493453 0.541819 -0.405214 
-0.494986 0.557863 -0.402855 
-0.50348 0.732925 -0.354842 
-0.502182 0.749558 -0.345405 
-0.499705 0.765011 -0.333255 
-0.49711 0.780465 -0.321105 
-0.496756 0.792616 -0.315442 
-0.467737 0.913767 -0.198773 
-0.464433 0.920491 -0.188156 
-0.449452 0.0372774 -0.525186 
-0.450041 0.0500177 -0.521765 
-0.450395 0.0625221 -0.51799 
-0.449569 0.0730211 -0.511974 
-0.450749 0.0863513 -0.509378 
-0.4524 0.100507 -0.507962 
-0.453817 0.110417 -0.507609 
-0.466439 0.27262 -0.474342 
-0.46691 0.284652 -0.470921 
-0.467265 0.296449 -0.467382 
-0.465849 0.305179 -0.460894 
-0.467382 0.320278 -0.458771 
-0.469624 0.333373 -0.459007 
-0.470096 0.345169 -0.455821 
-0.471039 0.355668 -0.453934 
-0.482482 0.497228 -0.426212 
-0.483189 0.510558 -0.422673 
-0.483189 0.52318 -0.417836 
-0.484252 0.536864 -0.415005 
-0.486965 0.550548 -0.416185 
-0.488026 0.562463 -0.414062 
-0.489913 0.573198 -0.414298 
-0.496048 0.728324 -0.369588 
-0.494869 0.741417 -0.361802 
-0.494042 0.753097 -0.355314 
-0.490504 0.760646 -0.344108 
-0.488381 0.771263 -0.334789 
-0.488852 0.785773 -0.330305 
-0.488262 0.799457 -0.3237 
-0.456765 0.913884 -0.205261 
-0.454053 0.921199 -0.19606 
-0.445559 0.0338563 -0.531792 
-0.445795 0.0422318 -0.529432 
-0.446502 0.0510793 -0.527545 
-0.446738 0.0593371 -0.52495 
-0.445676 0.0658251 -0.520231 
-0.444732 0.0721953 -0.515277 
-0.446738 0.0830483 -0.516103 
-0.448154 0.092957 -0.515749 
-0.448744 0.101569 -0.513861 
-0.449924 0.111006 -0.512918 
-0.46172 0.268845 -0.480477 
-0.461366 0.276041 -0.477056 
-0.462428 0.284888 -0.476112 
-0.462428 0.292556 -0.473517 
-0.462074 0.297747 -0.470685 
-0.462428 0.306594 -0.46809 
-0.463489 0.321222 -0.465141 
-0.464905 0.333373 -0.463961 
-0.465495 0.34163 -0.462428 
-0.466085 0.34977 -0.460658 
-0.466674 0.357909 -0.458888 
-0.467382 0.364398 -0.458181 
-0.477763 0.491919 -0.433762 
-0.477409 0.498879 -0.430459 
-0.477999 0.506665 -0.428925 
-0.478471 0.514333 -0.427038 
-0.477999 0.521174 -0.423499 
-0.477763 0.528134 -0.420314 
-0.479651 0.537219 -0.421139 
-0.481538 0.546419 -0.422084 
-0.482953 0.555149 -0.422201 
-0.484016 0.563407 -0.421375 
-0.484959 0.571428 -0.42055 
-0.486139 0.579805 -0.420195 
-0.49251 0.721009 -0.382329 
-0.49133 0.727026 -0.377138 
-0.490622 0.733514 -0.373127 
-0.490268 0.740238 -0.369942 
-0.490149 0.747198 -0.366993 
-0.488734 0.753097 -0.36133 
-0.487082 0.75699 -0.35614 
-0.483661 0.780701 -0.339035 
-0.483897 0.787896 -0.336793 
-0.483189 0.796272 -0.332193 
-0.482953 0.806772 -0.32771 
-0.449569 0.916715 -0.207857 
-0.448154 0.921199 -0.202784 
-0.445795 0.0342103 -0.530848 
-0.446031 0.0404625 -0.528961 
-0.446384 0.0449451 -0.528134 
-0.446857 0.0495459 -0.527545 
-0.44721 0.056152 -0.526011 
-0.446857 0.0635838 -0.522473 
-0.44544 0.0696001 -0.517164 
-0.445795 0.0759702 -0.51563 
-0.446738 0.0812788 -0.515749 
-0.447446 0.0859974 -0.515394 
-0.448036 0.0909522 -0.515158 
-0.448626 0.0956705 -0.514686 
-0.448744 0.0997995 -0.513507 
-0.44898 0.104046 -0.512563 
-0.449688 0.109001 -0.512446 
-0.450631 0.114074 -0.512446 
-0.461602 0.269317 -0.480477 
-0.461484 0.276749 -0.477527 
-0.461956 0.283001 -0.476229 
-0.46231 0.289253 -0.474932 
-0.462192 0.296685 -0.471866 
-0.462074 0.307066 -0.467972 
-0.463136 0.321458 -0.465023 
-0.464197 0.331485 -0.464079 
-0.465023 0.337973 -0.463489 
-0.465377 0.343989 -0.462074 
-0.465731 0.348237 -0.461366 
-0.466439 0.354725 -0.460658 
-0.46691 0.360741 -0.459361 
-0.467382 0.365106 -0.458888 
-0.477173 0.492274 -0.43447 
-0.476701 0.498998 -0.430813 
-0.477292 0.506901 -0.42928 
-0.477763 0.514569 -0.42751 
-0.477763 0.521765 -0.424796 
-0.477409 0.528725 -0.421611 
-0.478471 0.5371 -0.421022 
-0.480005 0.54406 -0.421848 
-0.481302 0.548897 -0.423027 
-0.482246 0.555268 -0.422791 
-0.482718 0.561165 -0.421848 
-0.483661 0.567536 -0.421729 
-0.484487 0.575557 -0.420667 
-0.485667 0.582164 -0.421022 
-0.491447 0.721245 -0.383626 
-0.490268 0.727262 -0.378672 
-0.489796 0.733986 -0.375133 
-0.489913 0.741064 -0.372774 
-0.489324 0.747552 -0.368881 
-0.488262 0.752035 -0.364988 
-0.487318 0.754748 -0.361685 
-0.486021 0.757226 -0.357673 
-0.482246 0.780583 -0.340097 
-0.483072 0.788487 -0.339271 
-0.4826 0.795211 -0.335732 
-0.481774 0.80158 -0.331485 
-0.481656 0.808659 -0.328654 
-0.447564 0.912941 -0.210452 
-0.447093 0.919901 -0.207031 
-0.450277 0.0394007 -0.523535 
-0.451103 0.0504896 -0.521293 
-0.452047 0.0618143 -0.519406 
-0.450985 0.0723133 -0.513271 
-0.450867 0.0819865 -0.509614 
-0.452047 0.0935473 -0.508081 
-0.453345 0.105226 -0.506901 
-0.465967 0.274861 -0.47505 
-0.466557 0.286894 -0.471983 
-0.466674 0.298455 -0.468208 
-0.466085 0.308127 -0.463253 
-0.467146 0.322284 -0.460658 
-0.46868 0.334906 -0.459597 
-0.469269 0.345169 -0.457473 
-0.470213 0.353663 -0.456412 
-0.470921 0.360151 -0.455704 
-0.480713 0.496874 -0.429161 
-0.48083 0.505839 -0.426094 
-0.481892 0.515984 -0.424796 
-0.481066 0.52613 -0.419252 
-0.481302 0.535449 -0.416539 
-0.484016 0.545476 -0.419252 
-0.48555 0.555975 -0.41878 
-0.486611 0.566121 -0.417719 
-0.488026 0.574732 -0.417836 
-0.494042 0.723251 -0.379026 
-0.492863 0.729267 -0.374189 
-0.492038 0.737525 -0.369353 
-0.491802 0.747906 -0.365106 
-0.490268 0.755574 -0.358854 
-0.488734 0.759585 -0.353899 
-0.486847 0.764186 -0.347646 
-0.484723 0.774448 -0.339035 
-0.485314 0.785066 -0.336558 
-0.484842 0.793559 -0.332429 
-0.484252 0.801935 -0.328065 
-0.484133 0.809012 -0.325233 
-0.450867 0.916008 -0.209273 
-0.457709 0.0489561 -0.511384 
-0.458888 0.066651 -0.507845 
-0.458299 0.0818686 -0.501474 
-0.458299 0.0937832 -0.497228 
-0.473398 0.280759 -0.466439 
-0.474225 0.296921 -0.462545 
-0.473045 0.310723 -0.455232 
-0.474342 0.325587 -0.45299 
-0.475404 0.340097 -0.450277 
-0.47682 0.353073 -0.44898 
-0.487673 0.501946 -0.421258 
-0.488262 0.517047 -0.417364 
-0.488498 0.53191 -0.412882 
-0.489678 0.54583 -0.41064 
-0.491094 0.558216 -0.409697 
-0.492627 0.568597 -0.409343 
-0.498407 0.729858 -0.366993 
-0.496992 0.741064 -0.359798 
-0.496284 0.752978 -0.354135 
-0.494514 0.762062 -0.346585 
-0.49133 0.771735 -0.335732 
-0.490268 0.783414 -0.329244 
-0.48956 0.793441 -0.323936 
-0.489796 0.800873 -0.322048 
-0.457709 0.915772 -0.207031 
-0.466439 0.0542644 -0.499469 
-0.467146 0.0712516 -0.49534 
-0.467265 0.0851716 -0.490504 
-0.482364 0.286186 -0.456293 
-0.482718 0.301758 -0.451811 
-0.482482 0.31674 -0.446266 
-0.482836 0.332193 -0.441548 
-0.48437 0.3434 -0.441194 
-0.495812 0.506075 -0.411112 
-0.496402 0.521293 -0.407455 
-0.49711 0.536511 -0.403799 
-0.497464 0.551374 -0.399551 
-0.504188 0.737171 -0.351893 
-0.503008 0.750383 -0.34458 
-0.501357 0.763242 -0.33644 
-0.49829 0.775039 -0.325351 
-0.496874 0.788015 -0.317329 
-0.467029 0.913413 -0.204436 
-0.473634 0.0457709 -0.487201 
-0.475522 0.0645276 -0.485195 
-0.47564 0.0805709 -0.479887 
