ply
format ascii 1.0
comment VCGLIB generated
element vertex 1668
property float x
property float y
property float z
element face 0
property list uchar int vertex_indices
end_header
-0.682822 0.641212 0.751275 
-0.676259 0.635937 0.752798 
-0.669929 0.630546 0.754674 
-0.664068 0.624802 0.757487 
-0.658208 0.619176 0.760066 
-0.652464 0.613433 0.763113 
-0.646721 0.607572 0.766161 
-0.641798 0.60136 0.77038 
-0.636406 0.595265 0.774014 
-0.631132 0.58917 0.777765 
-0.626443 0.582723 0.782688 
-0.621755 0.576159 0.787611 
-0.616949 0.569712 0.792416 
-0.612495 0.563031 0.797691 
-0.608158 0.556233 0.803317 
-0.604056 0.549317 0.809295 
-0.600188 0.54205 0.816093 
-0.596437 0.534783 0.822774 
-0.593038 0.527164 0.830393 
-0.589756 0.519311 0.838364 
-0.58788 0.513098 0.845279 
-0.586943 0.508762 0.850554 
-0.586122 0.50419 0.856063 
-0.585536 0.499502 0.862275 
-0.782453 0.707789 0.752798 
-0.777765 0.705796 0.751392 
-0.771201 0.702631 0.750102 
-0.762527 0.698294 0.748462 
-0.754205 0.69384 0.747289 
-0.746469 0.689152 0.746938 
-0.738264 0.684698 0.746 
-0.730645 0.679892 0.745766 
-0.723378 0.674969 0.746234 
-0.716228 0.670046 0.746703 
-0.709078 0.665006 0.747289 
-0.70228 0.659849 0.748579 
-0.695481 0.654691 0.749751 
-0.6888 0.649534 0.751275 
-0.682119 0.644259 0.752564 
-0.67579 0.638868 0.754205 
-0.669577 0.633476 0.756549 
-0.663717 0.627732 0.759128 
-0.658091 0.621989 0.762293 
-0.652347 0.616246 0.765223 
-0.646955 0.610151 0.768857 
-0.641798 0.604055 0.772842 
-0.636523 0.59796 0.776593 
-0.631366 0.591748 0.780578 
-0.62656 0.585301 0.785266 
-0.621872 0.578855 0.790189 
-0.617183 0.572291 0.795112 
-0.612729 0.56561 0.800387 
-0.609447 0.56057 0.804606 
-0.607572 0.556936 0.807888 
-0.605697 0.55342 0.81117 
-0.603704 0.549786 0.814452 
-0.601711 0.546152 0.817851 
-0.599836 0.542519 0.821133 
-0.597843 0.539002 0.824415 
-0.595968 0.535252 0.827815 
-0.594327 0.531501 0.831682 
-0.592686 0.527516 0.835668 
-0.591397 0.52353 0.840122 
-0.590224 0.519311 0.845045 
-0.58917 0.514974 0.850085 
-0.588349 0.510403 0.855594 
-0.789134 0.715173 0.754908 
-0.784329 0.713181 0.753502 
-0.779875 0.711188 0.75233 
-0.775421 0.709078 0.751392 
-0.770966 0.706968 0.750454 
-0.766864 0.704741 0.749868 
-0.762762 0.702514 0.749282 
-0.758542 0.700287 0.748696 
-0.754322 0.69806 0.747993 
-0.748227 0.694661 0.747289 
-0.740491 0.689972 0.746938 
-0.73299 0.685167 0.747055 
-0.725605 0.680361 0.747289 
-0.718221 0.675438 0.747407 
-0.711188 0.670515 0.74811 
-0.704272 0.665241 0.749165 
-0.697591 0.660083 0.750571 
-0.690793 0.654926 0.751743 
-0.684229 0.649768 0.753267 
-0.6779 0.644259 0.755025 
-0.671922 0.638633 0.757721 
-0.665709 0.633241 0.759831 
-0.659966 0.627498 0.762527 
-0.654457 0.621637 0.765926 
-0.648714 0.615777 0.768974 
-0.643673 0.609565 0.773193 
-0.638516 0.603469 0.777061 
-0.633242 0.597374 0.780929 
-0.629725 0.592569 0.784446 
-0.627381 0.589287 0.786907 
-0.625037 0.586005 0.789252 
-0.622692 0.582723 0.79183 
-0.620465 0.579441 0.794526 
-0.618238 0.576042 0.797222 
-0.616011 0.572643 0.799918 
-0.613667 0.569361 0.802497 
-0.61144 0.566079 0.805075 
-0.60933 0.562679 0.808006 
-0.607338 0.559163 0.811053 
-0.605579 0.555412 0.814569 
-0.603704 0.551779 0.818086 
-0.601711 0.548145 0.821251 
-0.599836 0.544511 0.82465 
-0.598195 0.540643 0.828635 
-0.596671 0.536775 0.832737 
-0.595147 0.532907 0.836723 
-0.593506 0.528922 0.840825 
-0.592217 0.52482 0.845396 
-0.591162 0.5206 0.850437 
-0.590459 0.516029 0.856063 
-0.589873 0.511223 0.862158 
-0.786087 0.719041 0.754439 
-0.779406 0.715876 0.752916 
-0.772959 0.712594 0.751509 
-0.766161 0.709547 0.749868 
-0.757956 0.704976 0.748813 
-0.749985 0.700404 0.74811 
-0.742132 0.695716 0.747758 
-0.734748 0.69091 0.747875 
-0.727246 0.686104 0.747875 
-0.719979 0.681181 0.748227 
-0.712946 0.676259 0.74893 
-0.706031 0.670984 0.749985 
-0.699349 0.665827 0.751275 
-0.692551 0.660669 0.752564 
-0.686104 0.655395 0.754205 
-0.679423 0.650237 0.755494 
-0.673211 0.644728 0.757604 
-0.66735 0.639102 0.7603 
-0.661607 0.633359 0.763348 
-0.656215 0.627381 0.766629 
-0.650472 0.62152 0.769677 
-0.645314 0.615425 0.773545 
-0.640392 0.609213 0.777882 
-0.635351 0.603001 0.782102 
-0.630428 0.596671 0.786556 
-0.625857 0.58999 0.791713 
-0.621403 0.583426 0.796988 
-0.616715 0.576745 0.802028 
-0.61355 0.571588 0.806365 
-0.611557 0.568188 0.809295 
-0.609447 0.564789 0.812342 
-0.607572 0.561156 0.815624 
-0.605697 0.557522 0.819024 
-0.603938 0.553771 0.822657 
-0.602063 0.55002 0.826174 
-0.600305 0.546387 0.82969 
-0.598664 0.542519 0.833675 
-0.59714 0.538534 0.837778 
-0.595733 0.534548 0.842114 
-0.594561 0.530329 0.84692 
-0.593389 0.526109 0.851726 
-0.592334 0.521772 0.856883 
-0.591865 0.516967 0.863095 
-0.792885 0.726777 0.757018 
-0.788197 0.724785 0.755494 
-0.783391 0.722792 0.753853 
-0.776593 0.719744 0.752212 
-0.768153 0.71529 0.750806 
-0.759948 0.710836 0.749868 
-0.751861 0.706382 0.74893 
-0.744008 0.701694 0.748462 
-0.736506 0.696771 0.748462 
-0.729122 0.691965 0.748696 
-0.721854 0.687042 0.749048 
-0.714704 0.682002 0.749634 
-0.708023 0.676845 0.750923 
-0.701225 0.671804 0.751978 
-0.694309 0.666647 0.753033 
-0.68798 0.661255 0.754908 
-0.68165 0.655864 0.756784 
-0.675438 0.650472 0.758776 
-0.669226 0.644963 0.761003 
-0.663482 0.639219 0.763816 
-0.657856 0.633359 0.766981 
-0.652113 0.627615 0.769911 
-0.646955 0.62152 0.773779 
-0.64215 0.615191 0.778351 
-0.637344 0.608861 0.782805 
-0.632538 0.602415 0.787611 
-0.62785 0.595968 0.792534 
-0.623161 0.589404 0.797339 
-0.618824 0.582723 0.802965 
-0.614605 0.575807 0.808592 
-0.610619 0.568892 0.814687 
-0.607689 0.5635 0.819492 
-0.605814 0.559749 0.823126 
-0.604056 0.555998 0.82676 
-0.602297 0.552365 0.830393 
-0.600539 0.548614 0.834144 
-0.599015 0.544629 0.838129 
-0.597609 0.540643 0.842466 
-0.59632 0.536541 0.847155 
-0.595265 0.532204 0.852195 
-0.594561 0.527633 0.857938 
-0.59421 0.522827 0.864385 
-0.795229 0.731817 0.757956 
-0.790541 0.729825 0.756432 
-0.786087 0.727832 0.755494 
-0.781516 0.725722 0.754322 
-0.776944 0.723612 0.753033 
-0.772607 0.721503 0.75233 
-0.768622 0.719158 0.751978 
-0.764637 0.716931 0.751626 
-0.760652 0.714587 0.751157 
-0.756432 0.712477 0.750571 
-0.75233 0.71025 0.749985 
-0.748344 0.707906 0.749634 
-0.744594 0.705562 0.749634 
-0.740726 0.7031 0.749516 
-0.735099 0.699467 0.749516 
-0.727832 0.694661 0.749751 
-0.720682 0.689621 0.750337 
-0.713649 0.684581 0.751157 
-0.706499 0.679658 0.751743 
-0.699936 0.6745 0.75315 
-0.693137 0.669343 0.754439 
-0.686691 0.663951 0.75608 
-0.680361 0.658559 0.757956 
-0.674266 0.65305 0.7603 
-0.668288 0.647424 0.762761 
-0.662545 0.641681 0.765692 
-0.65727 0.635703 0.769325 
-0.651644 0.629842 0.772256 
-0.647893 0.625271 0.775538 
-0.645314 0.622106 0.77753 
-0.642736 0.619059 0.779523 
-0.640392 0.615894 0.78175 
-0.63793 0.612729 0.783977 
-0.635469 0.609565 0.786087 
-0.633007 0.6064 0.788314 
-0.630546 0.603235 0.790658 
-0.628436 0.599836 0.793354 
-0.626209 0.596554 0.79605 
-0.623865 0.593272 0.798629 
-0.621755 0.589873 0.801442 
-0.619645 0.586474 0.804138 
-0.617418 0.583074 0.806951 
-0.615308 0.579558 0.809998 
-0.613433 0.576042 0.813163 
-0.611557 0.572525 0.816445 
-0.609565 0.569009 0.819727 
-0.607689 0.565375 0.823009 
-0.605814 0.561625 0.826408 
-0.604173 0.557874 0.830276 
-0.602532 0.554006 0.834144 
-0.601125 0.55002 0.838481 
-0.599719 0.546035 0.842818 
-0.598312 0.541933 0.847272 
-0.597374 0.537713 0.852312 
-0.596437 0.533259 0.857704 
-0.595733 0.528688 0.86333 
-0.79312 0.734044 0.758073 
-0.788314 0.732169 0.756666 
-0.783743 0.730059 0.755377 
-0.779289 0.727949 0.754322 
-0.774834 0.725957 0.753384 
-0.770615 0.72373 0.752681 
-0.766512 0.721503 0.751978 
-0.762293 0.719276 0.751392 
-0.758307 0.716931 0.75104 
-0.754439 0.714704 0.750806 
-0.750454 0.71236 0.750571 
-0.746586 0.710016 0.750337 
-0.742835 0.707554 0.750454 
-0.739202 0.705093 0.750571 
-0.735451 0.702749 0.750571 
-0.7317 0.700287 0.750454 
-0.727832 0.697943 0.750337 
-0.724316 0.695481 0.750571 
-0.720917 0.692903 0.751157 
-0.717283 0.690324 0.751509 
-0.713884 0.687863 0.751978 
-0.710485 0.685284 0.752564 
-0.707086 0.682705 0.753033 
-0.703686 0.680244 0.753619 
-0.700404 0.677548 0.754322 
-0.696888 0.675086 0.754908 
-0.693606 0.672391 0.755611 
-0.690441 0.669695 0.756549 
-0.687277 0.666999 0.757487 
-0.683995 0.66442 0.75819 
-0.68083 0.661724 0.759011 
-0.677782 0.658911 0.760183 
-0.674735 0.656215 0.761472 
-0.671687 0.653402 0.762527 
-0.66864 0.650706 0.763699 
-0.665709 0.647776 0.765106 
-0.663131 0.644728 0.766864 
-0.660435 0.641798 0.768622 
-0.657622 0.638868 0.770263 
-0.654809 0.636055 0.77167 
-0.651878 0.633241 0.773076 
-0.649417 0.630077 0.775303 
-0.647073 0.626795 0.777647 
-0.644377 0.623747 0.779523 
-0.642032 0.620583 0.78175 
-0.639571 0.617535 0.78386 
-0.636992 0.61437 0.78597 
-0.634765 0.611088 0.788548 
-0.632538 0.607806 0.79101 
-0.630194 0.604524 0.793471 
-0.627967 0.601242 0.79605 
-0.625623 0.59796 0.798629 
-0.623278 0.594678 0.801207 
-0.621169 0.591397 0.803786 
-0.618942 0.587997 0.806599 
-0.616949 0.584481 0.809647 
-0.614956 0.580847 0.812928 
-0.613198 0.577331 0.816328 
-0.611323 0.573697 0.819727 
-0.609565 0.570064 0.823126 
-0.607689 0.566313 0.826642 
-0.605814 0.562679 0.830159 
-0.604056 0.558929 0.833792 
-0.602415 0.555061 0.83766 
-0.601008 0.551193 0.841763 
-0.599602 0.54709 0.8461 
-0.598429 0.542871 0.851023 
-0.597492 0.538534 0.856297 
-0.596906 0.533845 0.862158 
-0.794995 0.739085 0.759011 
-0.790189 0.737092 0.757604 
-0.785384 0.735217 0.755963 
-0.780812 0.733107 0.754791 
-0.77671 0.73088 0.754205 
-0.77249 0.728653 0.753502 
-0.768271 0.726426 0.752798 
-0.764168 0.724198 0.752447 
-0.7603 0.721854 0.752212 
-0.756432 0.71951 0.751978 
-0.752447 0.717283 0.751626 
-0.748462 0.714939 0.751392 
-0.744828 0.712477 0.751509 
-0.74096 0.710133 0.751392 
-0.737092 0.707789 0.751157 
-0.733458 0.705327 0.751275 
-0.729825 0.702749 0.751509 
-0.726308 0.700287 0.751861 
-0.722792 0.697708 0.752212 
-0.719158 0.695364 0.752447 
-0.715525 0.692903 0.752681 
-0.712126 0.690324 0.75315 
-0.708844 0.687745 0.753736 
-0.705327 0.685167 0.754205 
-0.701928 0.682705 0.754674 
-0.698646 0.680009 0.755494 
-0.695481 0.677313 0.756432 
-0.6922 0.674618 0.75737 
-0.689035 0.672039 0.75819 
-0.68587 0.669343 0.759011 
-0.682588 0.666647 0.759831 
-0.679541 0.663951 0.760886 
-0.676493 0.661138 0.762058 
-0.673445 0.658325 0.763348 
-0.670515 0.655512 0.764637 
-0.667702 0.652699 0.766043 
-0.664889 0.649768 0.767567 
-0.662076 0.646838 0.769091 
-0.659263 0.643908 0.770732 
-0.656567 0.640978 0.772373 
-0.653871 0.638047 0.774131 
-0.651292 0.635 0.776124 
-0.648831 0.631835 0.778351 
-0.646369 0.62867 0.780461 
-0.644025 0.625505 0.782688 
-0.641681 0.622223 0.785149 
-0.639102 0.619176 0.787142 
-0.636641 0.616011 0.789252 
-0.634296 0.612729 0.79183 
-0.632069 0.609565 0.794292 
-0.629842 0.606165 0.79687 
-0.627498 0.602883 0.799449 
-0.625271 0.599601 0.802028 
-0.623161 0.596202 0.804841 
-0.621051 0.592803 0.807771 
-0.619059 0.589287 0.810819 
-0.617066 0.585653 0.814101 
-0.614956 0.582254 0.816914 
-0.612964 0.578855 0.819844 
-0.611206 0.575104 0.82336 
-0.609565 0.571353 0.827111 
-0.607806 0.567602 0.830862 
-0.606165 0.563734 0.83473 
-0.604642 0.559866 0.838832 
-0.603235 0.555881 0.843052 
-0.601829 0.551896 0.847389 
-0.600656 0.547676 0.852312 
-0.599719 0.543222 0.857469 
-0.599015 0.538768 0.863213 
-0.789369 0.742718 0.757839 
-0.780578 0.738381 0.75608 
-0.772139 0.734044 0.754557 
-0.763934 0.729473 0.753502 
-0.755846 0.724902 0.752681 
-0.74811 0.72033 0.752212 
-0.740608 0.715408 0.75233 
-0.733458 0.710485 0.752798 
-0.726191 0.705562 0.75315 
-0.719158 0.700522 0.753971 
-0.712243 0.695364 0.754908 
-0.705445 0.690324 0.755729 
-0.698763 0.685167 0.757252 
-0.6922 0.679892 0.758776 
-0.68587 0.6745 0.760534 
-0.679892 0.668874 0.762879 
-0.673914 0.663248 0.765457 
-0.668054 0.657739 0.768036 
-0.662545 0.651761 0.771435 
-0.65727 0.645783 0.774952 
-0.651761 0.639923 0.778351 
-0.646838 0.633593 0.78257 
-0.64215 0.627264 0.787142 
-0.637344 0.620817 0.79183 
-0.632655 0.61437 0.796753 
-0.628436 0.607572 0.802262 
-0.624216 0.600774 0.808006 
-0.620114 0.593741 0.814101 
-0.616246 0.586708 0.82043 
-0.61355 0.581199 0.82547 
-0.610971 0.57569 0.830979 
-0.608392 0.569947 0.836488 
-0.606869 0.566079 0.840708 
-0.605462 0.562093 0.844928 
-0.604173 0.557991 0.849499 
-0.603235 0.553654 0.854656 
-0.602297 0.5492 0.859931 
-0.601829 0.544511 0.866026 
-0.795347 0.752681 0.760769 
-0.786204 0.748462 0.758425 
-0.77753 0.744125 0.756666 
-0.769091 0.739788 0.755143 
-0.761121 0.735099 0.754557 
-0.753502 0.730411 0.754205 
-0.745883 0.725605 0.753971 
-0.738616 0.720682 0.754322 
-0.731231 0.715876 0.754557 
-0.723964 0.710953 0.754908 
-0.717166 0.705796 0.755963 
-0.710367 0.700639 0.757018 
-0.703686 0.695481 0.758307 
-0.697005 0.690207 0.759597 
-0.690559 0.684932 0.761238 
-0.684346 0.679423 0.763348 
-0.678368 0.673914 0.765692 
-0.672508 0.668288 0.76827 
-0.666882 0.662427 0.771318 
-0.66149 0.65645 0.774834 
-0.656215 0.650472 0.778585 
-0.650941 0.644494 0.782102 
-0.646369 0.63793 0.787142 
-0.641681 0.631483 0.79183 
-0.636758 0.625154 0.796167 
-0.632538 0.618473 0.801676 
-0.628436 0.611557 0.807537 
-0.624333 0.604642 0.813515 
-0.620231 0.597726 0.81961 
-0.616597 0.590459 0.826291 
-0.613198 0.582957 0.833792 
-0.610151 0.575221 0.841763 
-0.607455 0.567134 0.850437 
-0.605814 0.560804 0.857821 
-0.605228 0.556116 0.863799 
-0.799566 0.762879 0.762293 
-0.790424 0.758776 0.759831 
-0.781633 0.754439 0.757956 
-0.773662 0.749868 0.757252 
-0.765575 0.74518 0.756432 
-0.757721 0.740608 0.755846 
-0.750103 0.735803 0.755494 
-0.742601 0.730997 0.755494 
-0.735451 0.726074 0.755846 
-0.728184 0.721034 0.756432 
-0.721268 0.715994 0.757135 
-0.71447 0.710836 0.758307 
-0.707672 0.705679 0.759362 
-0.701342 0.700404 0.761121 
-0.694778 0.695013 0.762761 
-0.688449 0.689621 0.76452 
-0.682354 0.684112 0.766747 
-0.67661 0.678486 0.769443 
-0.670867 0.672742 0.772256 
-0.665123 0.666881 0.775303 
-0.6602 0.660786 0.779406 
-0.654926 0.654691 0.783156 
-0.65012 0.648362 0.787611 
-0.645549 0.641915 0.792416 
-0.640743 0.635468 0.796988 
-0.636289 0.628905 0.802145 
-0.631952 0.622223 0.807654 
-0.628084 0.615191 0.813749 
-0.623982 0.608275 0.819844 
-0.620465 0.601008 0.826877 
-0.617066 0.593506 0.834144 
-0.614136 0.585653 0.842232 
-0.61144 0.577683 0.851023 
-0.610033 0.571236 0.858759 
-0.803434 0.771904 0.763699 
-0.794409 0.767802 0.761238 
-0.785735 0.763465 0.759597 
-0.77753 0.758893 0.758542 
-0.769443 0.754322 0.757604 
-0.761472 0.749634 0.757018 
-0.753971 0.744828 0.756901 
-0.746586 0.739905 0.757135 
-0.739319 0.735099 0.757252 
-0.731935 0.730176 0.757487 
-0.725253 0.724902 0.758776 
-0.718338 0.719862 0.759597 
-0.711422 0.714822 0.760534 
-0.704976 0.709547 0.762058 
-0.698529 0.704155 0.763699 
-0.692317 0.698646 0.765692 
-0.686104 0.693254 0.767802 
-0.680127 0.687745 0.770029 
-0.6745 0.681885 0.773193 
-0.668874 0.676024 0.776124 
-0.6636 0.670046 0.77964 
-0.658559 0.663834 0.783977 
-0.653402 0.657856 0.787611 
-0.648714 0.651409 0.792534 
-0.64426 0.644846 0.797574 
-0.639805 0.638282 0.802614 
-0.635703 0.631366 0.808592 
-0.631952 0.624333 0.814921 
-0.627967 0.617301 0.821251 
-0.624333 0.610151 0.827815 
-0.620934 0.602766 0.835082 
-0.61859 0.596906 0.84106 
-0.617183 0.59292 0.845279 
-0.615777 0.589052 0.849499 
-0.614722 0.584833 0.854422 
-0.614136 0.580261 0.860165 
-0.613784 0.575456 0.866612 
-0.61355 0.57065 0.873059 
-0.806365 0.77882 0.765457 
-0.801911 0.77671 0.76452 
-0.797456 0.774483 0.763348 
-0.793002 0.772373 0.762293 
-0.786556 0.769091 0.761121 
-0.778234 0.764637 0.759831 
-0.770146 0.760066 0.759011 
-0.762293 0.75526 0.758542 
-0.754791 0.750571 0.758307 
-0.747172 0.745766 0.758307 
-0.740022 0.740843 0.758659 
-0.73299 0.735685 0.759245 
-0.725957 0.730645 0.760066 
-0.719276 0.725488 0.761121 
-0.712477 0.72033 0.762293 
-0.706031 0.715056 0.763934 
-0.699584 0.709664 0.765692 
-0.693137 0.70439 0.767333 
-0.687042 0.698881 0.769443 
-0.681064 0.693254 0.771904 
-0.675438 0.687511 0.774834 
-0.669929 0.681533 0.778234 
-0.664889 0.675438 0.782102 
-0.659849 0.669343 0.786204 
-0.654691 0.663248 0.789955 
-0.651058 0.658442 0.793471 
-0.64801 0.653402 0.797808 
-0.643322 0.646955 0.802497 
-0.639923 0.642032 0.80613 
-0.63793 0.638516 0.809295 
-0.636055 0.635 0.81246 
-0.634062 0.631601 0.81539 
-0.631952 0.628201 0.81832 
-0.630077 0.624685 0.821485 
-0.628201 0.621051 0.824884 
-0.626326 0.617418 0.828049 
-0.624685 0.613667 0.831917 
-0.623396 0.609682 0.836254 
-0.621989 0.605814 0.840356 
-0.620583 0.601828 0.844693 
-0.61941 0.597726 0.849264 
-0.618121 0.593741 0.853836 
-0.617066 0.589521 0.858524 
-0.616246 0.585184 0.863916 
-0.615777 0.580379 0.870245 
-0.808123 0.784211 0.767567 
-0.803434 0.782219 0.766043 
-0.798746 0.780109 0.764871 
-0.794409 0.777999 0.763816 
-0.790072 0.775772 0.762996 
-0.785852 0.773545 0.76241 
-0.77964 0.770146 0.761472 
-0.77167 0.765457 0.760769 
-0.763816 0.760769 0.7603 
-0.756315 0.755963 0.760183 
-0.748696 0.751275 0.759831 
-0.741546 0.746235 0.760417 
-0.734631 0.741077 0.761238 
-0.727598 0.736037 0.761941 
-0.720917 0.73088 0.763113 
-0.714118 0.725722 0.764285 
-0.707437 0.720565 0.765575 
-0.70099 0.715173 0.767216 
-0.694661 0.709899 0.768857 
-0.688566 0.704272 0.771201 
-0.682471 0.698763 0.773311 
-0.676845 0.69302 0.776358 
-0.671453 0.687042 0.779757 
-0.666178 0.681064 0.783391 
-0.661255 0.674852 0.787611 
-0.656098 0.668757 0.791596 
-0.652464 0.664068 0.794761 
-0.650355 0.660669 0.797691 
-0.648128 0.65727 0.80027 
-0.646018 0.653988 0.802965 
-0.642853 0.648948 0.806951 
-0.639454 0.644025 0.810701 
-0.637344 0.640626 0.813632 
-0.635234 0.637227 0.816562 
-0.633476 0.633593 0.819961 
-0.631601 0.630077 0.823243 
-0.629725 0.626443 0.826525 
-0.627967 0.62281 0.830159 
-0.626443 0.619059 0.833792 
-0.624802 0.615308 0.83766 
-0.623278 0.61144 0.841646 
-0.621989 0.607337 0.8461 
-0.620817 0.603352 0.850671 
-0.619645 0.599133 0.855359 
-0.618707 0.594913 0.8604 
-0.618004 0.590459 0.865909 
-0.617652 0.58577 0.872238 
-0.808943 0.790306 0.768622 
-0.802145 0.787142 0.766864 
-0.793354 0.782805 0.764988 
-0.784798 0.778468 0.763465 
-0.776593 0.773779 0.76241 
-0.768857 0.769091 0.761941 
-0.761003 0.764402 0.761355 
-0.753619 0.75948 0.761472 
-0.746235 0.754674 0.761589 
-0.739085 0.749634 0.762058 
-0.732169 0.744594 0.762996 
-0.725371 0.739436 0.763934 
-0.71869 0.734279 0.765106 
-0.712008 0.728887 0.766512 
-0.705445 0.72373 0.767919 
-0.699232 0.718338 0.769794 
-0.69302 0.712829 0.771904 
-0.686808 0.707437 0.773897 
-0.68083 0.701694 0.776475 
-0.675673 0.695716 0.779992 
-0.670164 0.689855 0.783391 
-0.665006 0.68376 0.787142 
-0.660318 0.677431 0.791713 
-0.655278 0.671218 0.795933 
-0.651058 0.664537 0.801207 
-0.646487 0.658091 0.806247 
-0.64215 0.651409 0.811522 
-0.638985 0.646252 0.815859 
-0.63711 0.642736 0.819024 
-0.635234 0.639219 0.822305 
-0.633359 0.635586 0.825705 
-0.631718 0.631952 0.829221 
-0.62996 0.628201 0.832855 
-0.628319 0.624568 0.836371 
-0.62656 0.620817 0.840005 
-0.625154 0.616949 0.844107 
-0.623747 0.612964 0.848327 
-0.622341 0.609096 0.852546 
-0.621286 0.604876 0.857587 
-0.620817 0.600305 0.863447 
-0.620583 0.595499 0.869777 
-0.806716 0.795933 0.768505 
-0.797925 0.791596 0.766629 
-0.789369 0.787142 0.764988 
-0.781281 0.78257 0.764168 
-0.773193 0.777882 0.76323 
-0.765457 0.773193 0.762761 
-0.757956 0.768388 0.762761 
-0.750689 0.763348 0.762996 
-0.743421 0.758425 0.76323 
-0.736389 0.753385 0.763934 
-0.729356 0.748462 0.76452 
-0.722909 0.74307 0.766161 
-0.716345 0.737795 0.767567 
-0.709781 0.732521 0.768974 
-0.703452 0.727129 0.770732 
-0.697357 0.721737 0.772959 
-0.691027 0.716228 0.774952 
-0.685167 0.710602 0.777296 
-0.679423 0.704858 0.780226 
-0.674032 0.698881 0.783625 
-0.668991 0.692786 0.787493 
-0.664068 0.686573 0.79183 
-0.659497 0.680127 0.796636 
-0.65434 0.674031 0.800504 
-0.650003 0.66735 0.805896 
-0.645783 0.660669 0.811405 
-0.641798 0.653754 0.817383 
-0.638282 0.646487 0.824181 
-0.635586 0.641095 0.829221 
-0.63289 0.635586 0.834496 
-0.630311 0.630077 0.83977 
-0.628905 0.626209 0.84399 
-0.627615 0.622223 0.84821 
-0.626443 0.618121 0.853015 
-0.625623 0.613784 0.85829 
-0.624919 0.609447 0.863682 
-0.624451 0.604759 0.869777 
-0.812108 0.804372 0.771201 
-0.8032 0.800035 0.769091 
-0.794409 0.795698 0.767216 
-0.786204 0.791244 0.766043 
-0.777999 0.786556 0.764988 
-0.770263 0.781867 0.764754 
-0.762644 0.777061 0.76452 
-0.75526 0.772139 0.764637 
-0.747993 0.767216 0.764754 
-0.740726 0.762293 0.765106 
-0.73381 0.757135 0.766043 
-0.727363 0.751861 0.76745 
-0.720682 0.746703 0.768739 
-0.714118 0.741312 0.770146 
-0.707672 0.736037 0.771787 
-0.701342 0.730645 0.773428 
-0.695247 0.725253 0.775538 
-0.689269 0.719627 0.777999 
-0.683643 0.713767 0.781047 
-0.678251 0.707906 0.784446 
-0.673094 0.701811 0.788079 
-0.667936 0.695716 0.792065 
-0.663248 0.689269 0.796753 
-0.658442 0.683057 0.80109 
-0.653519 0.676727 0.80531 
-0.649534 0.669929 0.811288 
-0.645549 0.663014 0.817265 
-0.641564 0.656098 0.823243 
-0.63793 0.648948 0.830042 
-0.635469 0.643439 0.835433 
-0.633945 0.639571 0.839419 
-0.632538 0.635703 0.843638 
-0.631249 0.631718 0.847975 
-0.630077 0.627732 0.852312 
-0.628787 0.623747 0.856883 
-0.62785 0.61941 0.861923 
-0.627381 0.614839 0.867784 
-0.627146 0.610033 0.874348 
-0.627146 0.60511 0.881146 
-0.812929 0.810819 0.772607 
-0.803903 0.806599 0.770615 
-0.795229 0.802145 0.768857 
-0.787142 0.797574 0.767802 
-0.779054 0.792885 0.766981 
-0.771435 0.788197 0.766629 
-0.763699 0.783391 0.766278 
-0.756198 0.778585 0.766161 
-0.749048 0.773545 0.766629 
-0.742132 0.768505 0.76745 
-0.735334 0.76323 0.768505 
-0.728418 0.75819 0.769325 
-0.721854 0.752916 0.770732 
-0.71529 0.747641 0.772256 
-0.708726 0.742366 0.773662 
-0.702514 0.736975 0.775538 
-0.696419 0.731466 0.77753 
-0.690676 0.725839 0.780343 
-0.68505 0.719979 0.783391 
-0.679423 0.714118 0.786438 
-0.674149 0.708258 0.789955 
-0.669109 0.702045 0.794057 
-0.66442 0.695716 0.798511 
-0.659966 0.689269 0.803551 
-0.65516 0.68294 0.808006 
-0.651058 0.676141 0.813749 
-0.647073 0.669226 0.819727 
-0.643087 0.66231 0.825822 
-0.639688 0.655043 0.832855 
-0.636406 0.647659 0.840239 
-0.633593 0.639805 0.848444 
-0.631483 0.633945 0.854773 
-0.630311 0.62996 0.859228 
-0.629491 0.625623 0.864619 
-0.629022 0.621051 0.870597 
-0.629022 0.616128 0.877278 
-0.629022 0.611205 0.884311 
-0.82172 0.822306 0.776124 
-0.81246 0.818086 0.773779 
-0.803786 0.813749 0.772021 
-0.795347 0.809295 0.770498 
-0.787142 0.804724 0.769443 
-0.779171 0.800035 0.768622 
-0.771552 0.795229 0.76827 
-0.764051 0.790424 0.768153 
-0.756549 0.785501 0.76827 
-0.749634 0.780461 0.768857 
-0.742484 0.77542 0.769443 
-0.735685 0.77038 0.77038 
-0.729004 0.765106 0.771552 
-0.722323 0.759831 0.772842 
-0.715876 0.754557 0.774483 
-0.70943 0.749282 0.776006 
-0.703218 0.74389 0.777999 
-0.69724 0.738264 0.780343 
-0.691379 0.732638 0.782922 
-0.685753 0.726894 0.785852 
-0.680478 0.720799 0.789369 
-0.675321 0.714822 0.793354 
-0.670515 0.708609 0.797456 
-0.665709 0.70228 0.801911 
-0.661255 0.695833 0.806951 
-0.656567 0.689386 0.811639 
-0.652464 0.682588 0.817383 
-0.648714 0.675555 0.823712 
-0.64508 0.668522 0.830159 
-0.641681 0.661255 0.837426 
-0.638516 0.653754 0.844928 
-0.635937 0.645783 0.853601 
-0.633828 0.637578 0.863213 
-0.843287 0.841177 0.782922 
-0.834027 0.836957 0.780461 
-0.824415 0.832855 0.777413 
-0.815624 0.828518 0.775538 
-0.806951 0.824064 0.773779 
-0.798394 0.81961 0.772138 
-0.790307 0.815038 0.771201 
-0.782336 0.81035 0.770498 
-0.774717 0.805544 0.770263 
-0.767216 0.800738 0.770029 
-0.759948 0.795698 0.77038 
-0.752681 0.790775 0.770615 
-0.745766 0.785735 0.771318 
-0.738967 0.780578 0.772373 
-0.732169 0.77542 0.773428 
-0.725488 0.770146 0.7746 
-0.719158 0.764871 0.776358 
-0.712829 0.75948 0.777999 
-0.706617 0.754088 0.779992 
-0.700639 0.748579 0.782336 
-0.694895 0.742835 0.784915 
-0.689269 0.737092 0.787962 
-0.683995 0.731114 0.791479 
-0.678837 0.725019 0.795347 
-0.673797 0.718924 0.799332 
-0.669343 0.712477 0.804138 
-0.664889 0.706031 0.809295 
-0.660552 0.699349 0.814569 
-0.655981 0.69302 0.819258 
-0.65223 0.685987 0.825587 
-0.648714 0.678837 0.832503 
-0.645432 0.671453 0.839653 
-0.642619 0.663834 0.847741 
-0.640274 0.655746 0.857 
-0.638516 0.647307 0.867081 
-0.846217 0.851609 0.78468 
-0.83684 0.847389 0.782102 
-0.827697 0.843169 0.779757 
-0.818789 0.838832 0.77753 
-0.810115 0.834378 0.775889 
-0.801793 0.829807 0.7746 
-0.793706 0.825236 0.773545 
-0.785852 0.820547 0.772959 
-0.777999 0.815742 0.77249 
-0.77038 0.810936 0.772138 
-0.763113 0.806013 0.772373 
-0.755963 0.800973 0.772842 
-0.748813 0.795933 0.773428 
-0.742132 0.790893 0.774483 
-0.735568 0.785618 0.775772 
-0.729004 0.780343 0.777061 
-0.722206 0.775186 0.777999 
-0.715994 0.769794 0.779992 
-0.709664 0.764402 0.78175 
-0.703804 0.758893 0.784211 
-0.698177 0.75315 0.787142 
-0.692668 0.747289 0.790306 
-0.687277 0.741429 0.793471 
-0.682002 0.735451 0.797105 
-0.676962 0.729356 0.80109 
-0.672391 0.722909 0.805896 
-0.668054 0.716463 0.810936 
-0.663951 0.709781 0.816562 
-0.659966 0.702983 0.822423 
-0.655746 0.696302 0.827932 
-0.652347 0.689035 0.834964 
-0.648948 0.681768 0.841997 
-0.646018 0.674266 0.84985 
-0.643908 0.666061 0.859345 
-0.642619 0.657387 0.870245 
-0.855477 0.862861 0.789134 
-0.845865 0.858759 0.786204 
-0.836371 0.854539 0.783391 
-0.827229 0.850202 0.781047 
-0.818438 0.845865 0.779171 
-0.809881 0.841294 0.777647 
-0.801793 0.836723 0.77671 
-0.793823 0.832034 0.775889 
-0.786087 0.827228 0.77542 
-0.778234 0.82254 0.774834 
-0.770732 0.817734 0.7746 
-0.76323 0.812811 0.774717 
-0.75608 0.807888 0.775069 
-0.749282 0.802731 0.776006 
-0.742484 0.797574 0.776827 
-0.735803 0.792416 0.778116 
-0.729122 0.787259 0.779288 
-0.722909 0.78175 0.781164 
-0.71658 0.776475 0.782922 
-0.710485 0.771084 0.784797 
-0.704624 0.765457 0.787376 
-0.698881 0.759714 0.790072 
-0.693372 0.753971 0.793237 
-0.688214 0.747993 0.79687 
-0.683057 0.741898 0.800621 
-0.678368 0.735685 0.805192 
-0.673914 0.729121 0.810233 
-0.669577 0.722675 0.815273 
-0.665358 0.715994 0.820782 
-0.66149 0.709195 0.826877 
-0.65727 0.702514 0.832386 
-0.653988 0.695247 0.839653 
-0.651058 0.687745 0.847389 
-0.648362 0.680009 0.855711 
-0.646604 0.67157 0.865909 
-0.645783 0.665006 0.874348 
-0.860634 0.871183 0.792299 
-0.850671 0.867198 0.7889 
-0.841177 0.862978 0.78597 
-0.832034 0.858641 0.783743 
-0.823243 0.854187 0.781984 
-0.814687 0.849733 0.780461 
-0.806599 0.845162 0.779406 
-0.798511 0.840473 0.778585 
-0.790541 0.835785 0.777765 
-0.782922 0.830979 0.777413 
-0.775186 0.826174 0.776827 
-0.767802 0.821251 0.777061 
-0.760534 0.816328 0.777296 
-0.753619 0.811288 0.777999 
-0.746821 0.80613 0.778937 
-0.739905 0.800973 0.779875 
-0.733224 0.795815 0.781047 
-0.726894 0.790424 0.782805 
-0.720682 0.785032 0.78468 
-0.714587 0.77964 0.786673 
-0.708609 0.774131 0.7889 
-0.702749 0.768622 0.791244 
-0.69724 0.762761 0.794292 
-0.691965 0.756784 0.798042 
-0.686925 0.750806 0.801793 
-0.682002 0.744711 0.805896 
-0.677196 0.738381 0.81035 
-0.672859 0.731935 0.815624 
-0.668757 0.725253 0.821251 
-0.665006 0.718338 0.827346 
-0.661255 0.711422 0.833792 
-0.657387 0.704507 0.839887 
-0.65434 0.697122 0.847389 
-0.651996 0.691496 0.853015 
-0.650941 0.687511 0.857704 
-0.649886 0.683408 0.862509 
-0.649182 0.679189 0.867784 
-0.648948 0.674618 0.873879 
-0.860751 0.877747 0.793706 
-0.851257 0.873528 0.790892 
-0.84188 0.869191 0.788314 
-0.832972 0.864854 0.786204 
-0.824064 0.8604 0.784329 
-0.815507 0.856063 0.78257 
-0.807068 0.851491 0.781281 
-0.799097 0.846686 0.780578 
-0.791244 0.841997 0.779875 
-0.783625 0.837192 0.77964 
-0.776007 0.832386 0.779288 
-0.768622 0.827463 0.779406 
-0.761472 0.82254 0.779875 
-0.754439 0.8175 0.780343 
-0.747407 0.81246 0.781047 
-0.740843 0.807185 0.782453 
-0.734396 0.801911 0.783743 
-0.727832 0.796753 0.785032 
-0.721268 0.791479 0.786673 
-0.71529 0.78597 0.788783 
-0.709547 0.780343 0.791361 
-0.703686 0.774717 0.793823 
-0.698295 0.768857 0.797222 
-0.693137 0.762879 0.800738 
-0.68798 0.757018 0.804489 
-0.683291 0.750689 0.808943 
-0.67872 0.744242 0.813866 
-0.6745 0.737678 0.819141 
-0.670164 0.731231 0.824415 
-0.666296 0.724316 0.83051 
-0.662662 0.7174 0.836957 
-0.658911 0.710367 0.843287 
-0.656332 0.702749 0.851726 
-0.653754 0.695013 0.860165 
-0.65223 0.688917 0.867432 
-0.651761 0.684581 0.873059 
-0.65141 0.680009 0.879154 
-0.860282 0.884897 0.794878 
-0.850671 0.880795 0.792065 
-0.841411 0.876458 0.789486 
-0.832269 0.872121 0.787142 
-0.823478 0.867784 0.785266 
-0.815156 0.863213 0.784094 
-0.807068 0.858407 0.783274 
-0.799215 0.853719 0.782453 
-0.791479 0.848913 0.781984 
-0.78386 0.844224 0.78175 
-0.776241 0.839419 0.781515 
-0.768739 0.834496 0.781515 
-0.761472 0.829573 0.781633 
-0.754674 0.824415 0.782453 
-0.747993 0.819258 0.783625 
-0.741194 0.814218 0.784563 
-0.734631 0.808943 0.78597 
-0.728301 0.803552 0.787611 
-0.722206 0.79816 0.78972 
-0.715994 0.792651 0.791713 
-0.71025 0.787024 0.794409 
-0.704741 0.781281 0.797222 
-0.699232 0.775538 0.800387 
-0.694075 0.76956 0.80402 
-0.689035 0.763465 0.808006 
-0.684698 0.757135 0.812928 
-0.680127 0.750689 0.817851 
-0.675907 0.744125 0.823126 
-0.671922 0.737444 0.828987 
-0.668288 0.730411 0.835433 
-0.664889 0.723261 0.842349 
-0.66149 0.716228 0.849264 
-0.658794 0.708609 0.857469 
-0.656684 0.700639 0.866846 
-0.655512 0.694309 0.874582 
-0.869425 0.896032 0.799449 
-0.859228 0.892164 0.795698 
-0.849616 0.887945 0.792534 
-0.840591 0.883608 0.790424 
-0.831683 0.879154 0.788548 
-0.823126 0.8747 0.786907 
-0.815038 0.870011 0.78597 
-0.806834 0.86544 0.784915 
-0.79898 0.860634 0.784211 
-0.791127 0.855946 0.783743 
-0.783743 0.851023 0.783625 
-0.776358 0.8461 0.783743 
-0.768974 0.841177 0.78386 
-0.761707 0.836254 0.784094 
-0.754791 0.831096 0.784915 
-0.747993 0.826056 0.785735 
-0.741429 0.820782 0.787142 
-0.735099 0.815507 0.788783 
-0.72877 0.810233 0.790424 
-0.722675 0.804724 0.792416 
-0.71658 0.799215 0.794643 
-0.710836 0.793588 0.797339 
-0.705562 0.787728 0.800621 
-0.700053 0.781984 0.803786 
-0.69513 0.775889 0.807771 
-0.690559 0.76956 0.812577 
-0.685987 0.763348 0.817148 
-0.681416 0.756901 0.821954 
-0.677431 0.75022 0.827697 
-0.67368 0.743421 0.834027 
-0.670281 0.736389 0.840708 
-0.667233 0.729004 0.84821 
-0.664303 0.72162 0.856063 
-0.661724 0.714001 0.864385 
-0.660669 0.707672 0.872238 
-0.660083 0.703335 0.877982 
-0.660083 0.698646 0.884663 
-0.867198 0.900838 0.800152 
-0.859814 0.897791 0.797574 
-0.850319 0.893571 0.794643 
-0.841294 0.889351 0.792534 
-0.832269 0.884897 0.790306 
-0.823712 0.880443 0.788783 
-0.815273 0.875872 0.787259 
-0.807302 0.871183 0.786673 
-0.799684 0.866378 0.786321 
-0.79183 0.861572 0.785735 
-0.784563 0.856649 0.78597 
-0.777296 0.851609 0.786204 
-0.769794 0.846803 0.78597 
-0.762644 0.84188 0.786438 
-0.755612 0.83684 0.787142 
-0.74893 0.831682 0.788197 
-0.742249 0.826408 0.789369 
-0.73592 0.821133 0.791127 
-0.72959 0.815742 0.792768 
-0.723495 0.81035 0.794643 
-0.717517 0.804841 0.796988 
-0.711891 0.799097 0.799918 
-0.706499 0.793237 0.8032 
-0.701108 0.787493 0.806365 
-0.696302 0.781398 0.810701 
-0.691379 0.775303 0.814804 
-0.687042 0.768857 0.819844 
-0.682822 0.762293 0.825236 
-0.67872 0.755729 0.830745 
-0.675086 0.748813 0.837309 
-0.671922 0.741663 0.844459 
-0.668874 0.734279 0.851843 
-0.666882 0.728653 0.858173 
-0.665709 0.724667 0.862627 
-0.664655 0.720799 0.867081 
-0.663951 0.71658 0.872473 
-0.663834 0.712008 0.878685 
-0.6636 0.707437 0.885014 
-0.663014 0.7031 0.890523 
-0.8747 0.907167 0.804958 
-0.869308 0.905292 0.802614 
-0.864033 0.903417 0.800504 
-0.859228 0.901424 0.798863 
-0.854422 0.899314 0.797456 
-0.849733 0.897204 0.79605 
-0.845045 0.895095 0.794878 
-0.840591 0.892868 0.793823 
-0.836137 0.890641 0.792768 
-0.831683 0.888531 0.79183 
-0.827463 0.886186 0.79101 
-0.823478 0.883842 0.790541 
-0.819375 0.881615 0.790072 
-0.815156 0.879271 0.789369 
-0.811053 0.876927 0.7889 
-0.807068 0.874582 0.788665 
-0.8032 0.872121 0.788314 
-0.799332 0.869777 0.788197 
-0.795464 0.867432 0.787962 
-0.791713 0.864971 0.787845 
-0.787845 0.862509 0.787728 
-0.784094 0.860165 0.787611 
-0.780343 0.857704 0.787611 
-0.776593 0.855242 0.787376 
-0.772959 0.852898 0.787493 
-0.769443 0.850319 0.787845 
-0.765926 0.847741 0.788197 
-0.76241 0.845279 0.788431 
-0.758894 0.842701 0.788783 
-0.755494 0.840239 0.789252 
-0.752212 0.83766 0.789838 
-0.748813 0.835082 0.790306 
-0.743656 0.831214 0.79101 
-0.737209 0.825939 0.792534 
-0.731231 0.82043 0.794643 
-0.725019 0.815038 0.796636 
-0.719041 0.809529 0.798863 
-0.714822 0.80531 0.800856 
-0.712008 0.802379 0.802497 
-0.708023 0.798043 0.804841 
-0.704038 0.793706 0.807419 
-0.701459 0.790775 0.809295 
-0.698998 0.787728 0.811288 
-0.696536 0.78468 0.813397 
-0.694192 0.781515 0.815507 
-0.691848 0.778351 0.817969 
-0.689621 0.775303 0.820313 
-0.687394 0.772021 0.822774 
-0.685284 0.768739 0.82547 
-0.683409 0.765457 0.828401 
-0.681416 0.762058 0.831448 
-0.679423 0.758659 0.834378 
-0.677548 0.755377 0.837426 
-0.675673 0.751861 0.840591 
-0.674032 0.748344 0.844107 
-0.672625 0.744594 0.847975 
-0.671218 0.740843 0.85196 
-0.670046 0.737092 0.85618 
-0.668874 0.733224 0.860751 
-0.667585 0.729356 0.864971 
-0.666413 0.725488 0.869308 
-0.665709 0.721268 0.874582 
-0.665475 0.716814 0.880677 
-0.665358 0.712243 0.887124 
-0.872004 0.909512 0.80531 
-0.866729 0.907636 0.803083 
-0.861337 0.905761 0.800738 
-0.856297 0.903768 0.79898 
-0.851726 0.901658 0.797808 
-0.847155 0.899549 0.796519 
-0.842583 0.897322 0.795464 
-0.838364 0.895095 0.794761 
-0.834144 0.89275 0.794057 
-0.829807 0.890523 0.793237 
-0.825588 0.888296 0.792416 
-0.821368 0.886069 0.79183 
-0.817148 0.883725 0.791127 
-0.813046 0.881381 0.790541 
-0.809061 0.879036 0.790189 
-0.805193 0.876575 0.790072 
-0.801207 0.874231 0.78972 
-0.797339 0.871886 0.789252 
-0.793471 0.869542 0.789252 
-0.789838 0.866964 0.789486 
-0.786204 0.864502 0.789486 
-0.782336 0.862158 0.789252 
-0.778585 0.859696 0.789252 
-0.774952 0.857235 0.789369 
-0.771435 0.854773 0.789486 
-0.767919 0.852195 0.789838 
-0.764403 0.849733 0.790072 
-0.760769 0.847272 0.790306 
-0.757253 0.84481 0.790541 
-0.753853 0.842232 0.790892 
-0.750337 0.83977 0.791361 
-0.747055 0.837192 0.791947 
-0.743773 0.834496 0.792651 
-0.740726 0.8318 0.793706 
-0.737561 0.829104 0.794526 
-0.734396 0.826408 0.795347 
-0.731466 0.823712 0.796519 
-0.728418 0.820899 0.797691 
-0.725371 0.818203 0.798746 
-0.722323 0.815507 0.799683 
-0.719276 0.812811 0.800621 
-0.716345 0.809998 0.801911 
-0.713532 0.807185 0.803434 
-0.710836 0.804255 0.804958 
-0.70814 0.801324 0.806599 
-0.705562 0.798394 0.808474 
-0.7031 0.795464 0.81035 
-0.700522 0.792416 0.812225 
-0.698177 0.789369 0.814452 
-0.695833 0.786204 0.816679 
-0.693372 0.783156 0.818906 
-0.691145 0.779992 0.821368 
-0.689035 0.77671 0.823946 
-0.686925 0.773545 0.826525 
-0.684815 0.770263 0.829338 
-0.68294 0.766747 0.832386 
-0.681064 0.763348 0.835551 
-0.679072 0.760066 0.838364 
-0.677196 0.756666 0.841528 
-0.675673 0.753033 0.845279 
-0.674149 0.749399 0.848913 
-0.672625 0.745766 0.852664 
-0.671453 0.741898 0.857 
-0.670398 0.73803 0.861455 
-0.669577 0.733927 0.866612 
-0.66864 0.729825 0.871535 
-0.667468 0.725957 0.875989 
-0.667116 0.721503 0.88185 
-0.874231 0.914435 0.807419 
-0.868956 0.912559 0.805192 
-0.863799 0.910567 0.8032 
-0.858993 0.908574 0.801676 
-0.854187 0.906464 0.80027 
-0.849382 0.904472 0.798629 
-0.844693 0.902362 0.797339 
-0.840239 0.900135 0.796401 
-0.835902 0.897908 0.795347 
-0.831565 0.895681 0.794526 
-0.827229 0.893454 0.793823 
-0.823126 0.891227 0.793237 
-0.818906 0.888882 0.792651 
-0.814921 0.886538 0.792182 
-0.810936 0.884077 0.79183 
-0.805075 0.88056 0.791361 
-0.797456 0.875754 0.791127 
-0.789955 0.870832 0.791127 
-0.78257 0.865909 0.791127 
-0.774952 0.86122 0.790775 
-0.767684 0.856297 0.79101 
-0.760886 0.85114 0.791947 
-0.754088 0.845982 0.792885 
-0.747407 0.840825 0.794174 
-0.74096 0.835551 0.795581 
-0.734513 0.830276 0.796988 
-0.728418 0.824884 0.799215 
-0.72244 0.819375 0.801442 
-0.716814 0.813749 0.804138 
-0.711188 0.808006 0.807185 
-0.706031 0.802145 0.810701 
-0.701108 0.79605 0.814804 
-0.696536 0.789838 0.819375 
-0.691965 0.783508 0.824181 
-0.688918 0.778585 0.828283 
-0.686925 0.775303 0.831214 
-0.684932 0.772021 0.834027 
-0.682822 0.768622 0.83684 
-0.681064 0.765223 0.840005 
-0.679423 0.761589 0.843638 
-0.677782 0.758073 0.847272 
-0.676259 0.754557 0.850788 
-0.674852 0.750806 0.854773 
-0.673563 0.747055 0.858876 
-0.672391 0.743187 0.863213 
-0.671453 0.739085 0.868253 
-0.67075 0.734982 0.873527 
-0.670046 0.730762 0.878685 
-0.870949 0.917951 0.807419 
-0.865674 0.916076 0.805192 
-0.860634 0.9142 0.803434 
-0.853601 0.910918 0.801559 
-0.844459 0.906699 0.799215 
-0.835551 0.902245 0.797105 
-0.826877 0.897791 0.795464 
-0.818906 0.893102 0.794643 
-0.810819 0.888413 0.793706 
-0.803083 0.883608 0.793237 
-0.795347 0.878919 0.792768 
-0.787845 0.873996 0.792651 
-0.780578 0.869073 0.793002 
-0.773311 0.86415 0.793237 
-0.766043 0.85911 0.793354 
-0.759011 0.854187 0.79394 
-0.752447 0.848913 0.795347 
-0.745883 0.843755 0.796636 
-0.739436 0.838481 0.79816 
-0.733224 0.833089 0.799918 
-0.727129 0.827697 0.802145 
-0.721385 0.822071 0.804606 
-0.715876 0.816328 0.807771 
-0.710485 0.810467 0.811053 
-0.705327 0.804606 0.814569 
-0.700639 0.798511 0.819024 
-0.696068 0.792182 0.823712 
-0.691731 0.785852 0.828752 
-0.687511 0.779289 0.834144 
-0.684581 0.774248 0.838598 
-0.683057 0.770615 0.842232 
-0.680478 0.76534 0.847389 
-0.678017 0.760066 0.852664 
-0.676845 0.756315 0.856883 
-0.67579 0.75233 0.861689 
-0.674852 0.748344 0.866495 
-0.674032 0.744242 0.871418 
-0.673563 0.740022 0.876927 
-0.672859 0.735803 0.882318 
-0.87845 0.925335 0.812108 
-0.872941 0.92346 0.809647 
-0.867784 0.921585 0.807537 
-0.862861 0.919592 0.805779 
-0.858055 0.917482 0.804372 
-0.85325 0.915372 0.802965 
-0.8461 0.912325 0.800856 
-0.837426 0.907871 0.799097 
-0.828869 0.903299 0.797456 
-0.820899 0.898611 0.796753 
-0.812929 0.893922 0.795933 
-0.804958 0.889234 0.795112 
-0.797222 0.884428 0.794643 
-0.78972 0.879505 0.794526 
-0.782336 0.8747 0.794526 
-0.774952 0.869777 0.794761 
-0.767919 0.864737 0.795229 
-0.761003 0.859696 0.79605 
-0.754322 0.854539 0.797105 
-0.747641 0.849382 0.798277 
-0.741312 0.84399 0.800035 
-0.735217 0.838598 0.802028 
-0.729239 0.833089 0.804255 
-0.723378 0.82758 0.806599 
-0.717635 0.821954 0.809295 
-0.71236 0.816093 0.812694 
-0.707086 0.810233 0.81621 
-0.702631 0.80402 0.820899 
-0.69806 0.797691 0.825705 
-0.693723 0.791244 0.830862 
-0.689738 0.78468 0.836371 
-0.685987 0.777882 0.842701 
-0.683409 0.772725 0.847623 
-0.681885 0.769091 0.851491 
-0.680478 0.76534 0.855477 
-0.679072 0.761707 0.859345 
-0.6779 0.757839 0.863682 
-0.677079 0.753853 0.868605 
-0.676493 0.749634 0.874114 
-0.676259 0.74518 0.880209 
-0.876223 0.928383 0.812577 
-0.870949 0.926508 0.81035 
-0.865791 0.924632 0.808474 
-0.860751 0.92264 0.806599 
-0.855946 0.92053 0.805075 
-0.85114 0.918537 0.803669 
-0.846686 0.91631 0.802614 
-0.840122 0.912911 0.801324 
-0.83391 0.909512 0.800387 
-0.82758 0.906113 0.799215 
-0.819258 0.901424 0.798042 
-0.81117 0.896853 0.797105 
-0.803434 0.892047 0.796753 
-0.795933 0.887124 0.796519 
-0.788548 0.882318 0.796519 
-0.78093 0.877513 0.796284 
-0.773662 0.87259 0.796636 
-0.76663 0.86755 0.796988 
-0.759831 0.862392 0.797925 
-0.753267 0.857235 0.799215 
-0.746703 0.85196 0.800504 
-0.740374 0.846686 0.802379 
-0.734162 0.841294 0.804138 
-0.728184 0.835785 0.806247 
-0.72244 0.830276 0.808943 
-0.717049 0.824415 0.812225 
-0.711891 0.818555 0.815859 
-0.706734 0.812577 0.819492 
-0.701928 0.806482 0.823712 
-0.697826 0.800035 0.829104 
-0.693723 0.793471 0.83473 
-0.690676 0.788548 0.83895 
-0.6888 0.785149 0.841997 
-0.687159 0.781633 0.845396 
-0.685636 0.778116 0.849147 
-0.684229 0.774366 0.853015 
-0.682705 0.770732 0.856883 
-0.681299 0.767098 0.860634 
-0.680009 0.763348 0.864737 
-0.679072 0.759362 0.869542 
-0.678368 0.75526 0.874934 
-0.678134 0.750806 0.880912 
-0.874934 0.930845 0.813983 
-0.869542 0.929086 0.811639 
-0.864268 0.927211 0.809412 
-0.859345 0.925218 0.807654 
-0.854656 0.922991 0.806482 
-0.850202 0.920881 0.805427 
-0.845631 0.918654 0.804372 
-0.841177 0.916545 0.8032 
-0.836606 0.914317 0.802028 
-0.832386 0.91209 0.801324 
-0.828283 0.909746 0.800738 
-0.824181 0.907402 0.800152 
-0.820079 0.905058 0.799801 
-0.816211 0.902713 0.799449 
-0.812225 0.900369 0.79898 
-0.80824 0.898025 0.798629 
-0.804372 0.895563 0.798511 
-0.800621 0.893219 0.798394 
-0.796753 0.890758 0.79816 
-0.79312 0.888296 0.79816 
-0.789252 0.885952 0.797925 
-0.785384 0.883608 0.797691 
-0.78175 0.881146 0.797925 
-0.778234 0.878568 0.798042 
-0.772842 0.874934 0.798394 
-0.765809 0.869894 0.799097 
-0.759011 0.864737 0.799918 
-0.75233 0.859579 0.80109 
-0.745883 0.854305 0.802497 
-0.739553 0.84903 0.804138 
-0.733576 0.843521 0.806482 
-0.727715 0.838012 0.808826 
-0.721972 0.832386 0.811405 
-0.71658 0.826642 0.814687 
-0.711305 0.820782 0.817969 
-0.70732 0.816328 0.820547 
-0.704976 0.81328 0.822774 
-0.702866 0.810115 0.82547 
-0.700756 0.806951 0.828049 
-0.698763 0.803669 0.830862 
-0.696536 0.800387 0.833324 
-0.694309 0.797222 0.835902 
-0.692434 0.79394 0.838832 
-0.690676 0.790541 0.841997 
-0.688918 0.787024 0.845396 
-0.687277 0.783508 0.848913 
-0.685753 0.779875 0.852664 
-0.684346 0.776241 0.856649 
-0.68294 0.772607 0.8604 
-0.68165 0.768739 0.864737 
-0.680713 0.764871 0.869425 
-0.679775 0.760769 0.874231 
-0.679423 0.756549 0.879857 
-0.679423 0.751978 0.886538 
-0.878216 0.935533 0.817031 
-0.872824 0.933658 0.814569 
-0.86755 0.931782 0.81246 
-0.862627 0.92979 0.810584 
-0.857704 0.927797 0.808943 
-0.852781 0.925687 0.807419 
-0.84821 0.923577 0.806247 
-0.843756 0.92135 0.805192 
-0.839301 0.919123 0.804138 
-0.835082 0.916896 0.803434 
-0.831097 0.914552 0.802965 
-0.826994 0.912208 0.802497 
-0.822892 0.909863 0.801911 
-0.818789 0.907519 0.801442 
-0.814804 0.905292 0.800856 
-0.810819 0.902948 0.800504 
-0.806834 0.900604 0.80027 
-0.802965 0.898142 0.800035 
-0.799215 0.895798 0.799801 
-0.795464 0.893336 0.799683 
-0.791596 0.890875 0.799566 
-0.787728 0.888531 0.799332 
-0.784094 0.886069 0.799449 
-0.780578 0.883608 0.799683 
-0.776944 0.881146 0.799801 
-0.773311 0.878568 0.800035 
-0.769794 0.876106 0.800152 
-0.766161 0.873645 0.800387 
-0.761121 0.869777 0.80109 
-0.754439 0.864619 0.802262 
-0.74811 0.859345 0.803786 
-0.741898 0.85407 0.805661 
-0.735685 0.848561 0.807537 
-0.729825 0.843052 0.809998 
-0.723964 0.837543 0.812342 
-0.719744 0.833324 0.814335 
-0.717166 0.830393 0.81621 
-0.714704 0.827346 0.818203 
-0.712126 0.824415 0.820078 
-0.70943 0.821485 0.821719 
-0.706851 0.818437 0.823595 
-0.704624 0.81539 0.825939 
-0.702514 0.812225 0.828635 
-0.700404 0.808943 0.831214 
-0.698412 0.805661 0.834027 
-0.696536 0.802379 0.837074 
-0.694544 0.799097 0.839887 
-0.692551 0.795698 0.842701 
-0.690676 0.792416 0.845865 
-0.689035 0.7889 0.849264 
-0.687511 0.785266 0.853015 
-0.685987 0.781633 0.856883 
-0.684698 0.777882 0.860868 
-0.683526 0.774131 0.865205 
-0.682588 0.770146 0.870011 
-0.681885 0.766043 0.875168 
-0.681299 0.761824 0.88056 
-0.680947 0.757487 0.886421 
-0.880443 0.940925 0.81961 
-0.8747 0.939167 0.816797 
-0.869425 0.937291 0.814452 
-0.864385 0.935299 0.812694 
-0.859579 0.933306 0.811053 
-0.854773 0.931196 0.809647 
-0.850202 0.928969 0.808357 
-0.845748 0.926742 0.807419 
-0.841411 0.924515 0.806482 
-0.836957 0.922288 0.805544 
-0.830628 0.918889 0.804372 
-0.822306 0.914317 0.803083 
-0.814335 0.909629 0.802379 
-0.806599 0.904823 0.801793 
-0.798746 0.900135 0.801324 
-0.791361 0.895212 0.80109 
-0.784094 0.890289 0.801324 
-0.776827 0.885366 0.801559 
-0.76956 0.880443 0.801911 
-0.762879 0.875286 0.802848 
-0.75608 0.870128 0.803786 
-0.749751 0.864854 0.805427 
-0.743539 0.859462 0.807302 
-0.737444 0.85407 0.809295 
-0.731466 0.848561 0.811639 
-0.725722 0.842935 0.814218 
-0.720213 0.837192 0.817265 
-0.715173 0.831331 0.821016 
-0.710367 0.825236 0.825119 
-0.705445 0.819141 0.829221 
-0.701459 0.812577 0.834847 
-0.697357 0.80613 0.840356 
-0.694427 0.80109 0.844693 
-0.692786 0.797574 0.84821 
-0.691262 0.794057 0.851843 
-0.689738 0.790424 0.855477 
-0.688331 0.78679 0.859462 
-0.686925 0.783039 0.863564 
-0.685753 0.779289 0.867784 
-0.68505 0.775186 0.872941 
-0.684581 0.770966 0.878568 
-0.88267 0.946785 0.82254 
-0.876458 0.945144 0.819141 
-0.871066 0.943269 0.816679 
-0.863564 0.940339 0.813983 
-0.85407 0.936119 0.810936 
-0.845162 0.931665 0.80906 
-0.836371 0.927211 0.807068 
-0.828049 0.92264 0.805779 
-0.820079 0.917951 0.804958 
-0.811991 0.913263 0.80402 
-0.804372 0.908457 0.803786 
-0.796636 0.903768 0.803317 
-0.789134 0.898845 0.8032 
-0.781984 0.893805 0.803551 
-0.774834 0.888882 0.803903 
-0.767684 0.883959 0.804255 
-0.761003 0.878802 0.80531 
-0.754557 0.873528 0.806716 
-0.748344 0.868136 0.808592 
-0.742132 0.862861 0.81035 
-0.73592 0.857352 0.812342 
-0.730294 0.851726 0.815038 
-0.724785 0.845982 0.818086 
-0.71951 0.840239 0.821368 
-0.714587 0.834144 0.825353 
-0.709899 0.828049 0.829807 
-0.705562 0.821719 0.834847 
-0.701577 0.815156 0.840473 
-0.697943 0.808357 0.846803 
-0.694661 0.801324 0.853836 
-0.692317 0.795933 0.859228 
-0.691027 0.792182 0.863213 
-0.689972 0.788431 0.867784 
-0.6888 0.784563 0.872238 
-0.687863 0.780578 0.876927 
-0.880912 0.950302 0.82465 
-0.875051 0.948661 0.821602 
-0.869542 0.946785 0.819141 
-0.864268 0.945027 0.816797 
-0.856883 0.94198 0.814101 
-0.847624 0.937643 0.811639 
-0.839067 0.933071 0.809998 
-0.830628 0.9285 0.808709 
-0.822657 0.923695 0.807888 
-0.814687 0.919006 0.807068 
-0.806482 0.914435 0.805896 
-0.79898 0.909629 0.805779 
-0.791596 0.904706 0.805779 
-0.784094 0.8999 0.805661 
-0.777179 0.894743 0.806365 
-0.770146 0.88982 0.806833 
-0.763465 0.884663 0.807888 
-0.756666 0.879505 0.808826 
-0.750454 0.874114 0.810584 
-0.744242 0.868722 0.81246 
-0.738264 0.86333 0.814687 
-0.732403 0.857821 0.817148 
-0.726777 0.852078 0.819961 
-0.721385 0.846334 0.823126 
-0.71658 0.840239 0.827228 
-0.711891 0.834144 0.831565 
-0.707672 0.827697 0.83684 
-0.703804 0.821016 0.842818 
-0.699936 0.814335 0.848678 
-0.696536 0.807419 0.855477 
-0.694309 0.802028 0.861103 
-0.693254 0.79816 0.86544 
-0.692317 0.794292 0.870245 
-0.691496 0.790306 0.875168 
-0.69091 0.786087 0.880677 
-0.690793 0.78175 0.886655 
-0.690793 0.777179 0.893102 
-0.879623 0.953584 0.826174 
-0.873645 0.951943 0.823009 
-0.86837 0.950067 0.820782 
-0.863447 0.948075 0.819024 
-0.858524 0.945965 0.8175 
-0.853719 0.943972 0.815859 
-0.849147 0.941745 0.814569 
-0.84481 0.939518 0.813749 
-0.838364 0.936119 0.81246 
-0.829924 0.931548 0.81117 
-0.82172 0.926859 0.809998 
-0.813866 0.922171 0.809178 
-0.805896 0.917482 0.808592 
-0.798277 0.912677 0.80824 
-0.79101 0.907754 0.808357 
-0.783508 0.902948 0.808123 
-0.776358 0.897908 0.808592 
-0.769443 0.892868 0.809295 
-0.762762 0.88771 0.81035 
-0.756198 0.882436 0.811639 
-0.749985 0.877161 0.813397 
-0.743773 0.871769 0.81539 
-0.737795 0.86626 0.817617 
-0.732052 0.860634 0.820078 
-0.726426 0.855008 0.823009 
-0.721503 0.84903 0.82676 
-0.716697 0.842935 0.830979 
-0.712008 0.836723 0.835433 
-0.707789 0.830393 0.840708 
-0.704741 0.82547 0.84481 
