ply
format ascii 1.0
comment VCGLIB generated
element vertex 1576
property float x
property float y
property float z
element face 0
property list uchar int vertex_indices
end_header
-0.0670761 0.334436 -0.89667 
-0.0529051 0.346363 -0.896434 
-0.0367265 0.356991 -0.894308 
-0.0188947 0.365376 -0.889584 
-0.00153522 0.370454 -0.882853 
0.0155881 0.372933 -0.874587 
0.0324752 0.373524 -0.865257 
0.0491261 0.372225 -0.854747 
0.0658951 0.370217 -0.843647 
0.082546 0.366084 -0.831129 
0.0970713 0.361833 -0.819674 
0.109589 0.356282 -0.80881 
0.121989 0.349433 -0.797237 
0.132263 0.340931 -0.785664 
0.138403 0.3329 -0.776807 
0.275508 0.713628 -0.957959 
0.290623 0.718115 -0.952291 
0.305739 0.71906 -0.944261 
0.320973 0.718942 -0.935404 
0.332428 0.71658 -0.927256 
-0.238899 -0.198866 -0.610888 
-0.225909 -0.181271 -0.615494 
-0.21351 -0.166155 -0.618682 
-0.204535 -0.156944 -0.619863 
-0.121871 0.272556 -0.865612 
-0.109943 0.293576 -0.873288 
-0.0990789 0.309164 -0.877775 
-0.0860888 0.32428 -0.880964 
-0.0713274 0.338687 -0.882499 
-0.0571564 0.350496 -0.882263 
-0.0433397 0.359589 -0.880373 
-0.0276335 0.366556 -0.876122 
-0.010274 0.371871 -0.869627 
0.00696739 0.375177 -0.861833 
0.0238545 0.375768 -0.852504 
0.0407416 0.375413 -0.842466 
0.0552669 0.373288 -0.832546 
0.0677846 0.371752 -0.824162 
0.0803023 0.36821 -0.814478 
0.09282 0.364313 -0.804558 
0.105338 0.359235 -0.794048 
0.117737 0.351441 -0.781649 
0.127893 0.340812 -0.768777 
0.267714 0.723548 -0.95111 
0.282829 0.727917 -0.945324 
0.297827 0.729452 -0.937766 
0.311171 0.729688 -0.930326 
0.322508 0.728035 -0.92265 
-0.259211 -0.208077 -0.597308 
-0.246103 -0.190364 -0.601913 
-0.233349 -0.174185 -0.60581 
-0.221068 -0.159896 -0.608408 
-0.208904 -0.146552 -0.610652 
-0.127893 0.270666 -0.849787 
-0.118682 0.288025 -0.856519 
-0.107345 0.305857 -0.862423 
-0.0968352 0.31932 -0.86573 
-0.0865612 0.330775 -0.867855 
-0.0742797 0.342348 -0.868918 
-0.0601087 0.353921 -0.868564 
-0.04641 0.362187 -0.86632 
-0.0329476 0.368564 -0.862896 
-0.0198394 0.372815 -0.858172 
-0.00684934 0.376004 -0.85274 
0.00590456 0.377775 -0.846481 
0.0186585 0.378129 -0.839395 
0.0314124 0.378366 -0.83231 
0.0439301 0.377421 -0.82428 
0.0564478 0.37565 -0.815895 
0.0689655 0.372697 -0.806566 
0.0814832 0.369273 -0.796882 
0.0940009 0.364785 -0.786727 
0.106519 0.358762 -0.775626 
0.116675 0.35026 -0.763935 
0.124705 0.336915 -0.75059 
0.264761 0.733585 -0.942726 
0.279877 0.737482 -0.936821 
0.294993 0.738781 -0.929027 
0.308219 0.738309 -0.921115 
0.319556 0.737128 -0.913793 
-0.270902 -0.202291 -0.589277 
-0.25803 -0.185876 -0.593174 
-0.245394 -0.170524 -0.596599 
-0.232995 -0.156589 -0.599079 
-0.221068 -0.144544 -0.600496 
-0.209376 -0.133325 -0.601559 
-0.129428 0.277752 -0.838096 
-0.120454 0.294402 -0.844355 
-0.109235 0.311171 -0.849669 
-0.0987246 0.32428 -0.852858 
-0.0862069 0.337506 -0.854983 
-0.0716816 0.350142 -0.855456 
-0.0577468 0.359825 -0.854039 
-0.0441663 0.366675 -0.85085 
-0.03094 0.371871 -0.846717 
-0.0178319 0.37565 -0.841757 
-0.00484178 0.378248 -0.836089 
0.00791212 0.37931 -0.829476 
0.0205479 0.379665 -0.822272 
0.0331837 0.378838 -0.814478 
0.0457014 0.377539 -0.806212 
0.0583372 0.375295 -0.797473 
0.070855 0.371989 -0.787907 
0.0833727 0.368092 -0.778106 
0.0958904 0.362659 -0.767359 
0.106164 0.354511 -0.756023 
0.114195 0.342702 -0.743623 
0.256967 0.740789 -0.936112 
0.270194 0.74504 -0.931507 
0.28342 0.746457 -0.925012 
0.294639 0.74693 -0.918871 
0.305975 0.746221 -0.912022 
0.315423 0.744922 -0.905763 
-0.289325 -0.204535 -0.579358 
-0.276216 -0.187648 -0.583609 
-0.263462 -0.171705 -0.587388 
-0.250945 -0.157652 -0.589986 
-0.238899 -0.145371 -0.591639 
-0.227326 -0.135215 -0.592111 
-0.212919 -0.123288 -0.592111 
-0.128602 0.289325 -0.828059 
-0.117029 0.30881 -0.835026 
-0.106164 0.323453 -0.839277 
-0.0960085 0.33479 -0.841403 
-0.083727 0.346127 -0.842466 
-0.069556 0.356755 -0.841639 
-0.0557393 0.365257 -0.839513 
-0.0422768 0.371516 -0.835971 
-0.0292868 0.375059 -0.830893 
-0.0162967 0.378011 -0.825461 
-0.00342468 0.379547 -0.819202 
0.00932922 0.380255 -0.812352 
0.0220831 0.380255 -0.804913 
0.0347189 0.379074 -0.796882 
0.0472366 0.377185 -0.78838 
0.0597543 0.374114 -0.779051 
0.0722721 0.369981 -0.769013 
0.0847898 0.364785 -0.758385 
0.0951818 0.357345 -0.747638 
0.103094 0.344828 -0.734648 
0.25059 0.749292 -0.929972 
0.261927 0.752952 -0.926075 
0.273146 0.754015 -0.920524 
0.284483 0.754842 -0.914738 
0.29582 0.754606 -0.908125 
0.307156 0.753307 -0.900803 
0.314714 0.752008 -0.895607 
-0.310227 -0.214691 -0.566131 
-0.296764 -0.196268 -0.571327 
-0.283656 -0.179381 -0.575697 
-0.271138 -0.165801 -0.578177 
-0.258739 -0.15222 -0.580539 
-0.246812 -0.140175 -0.582074 
-0.23512 -0.130373 -0.58231 
-0.223666 -0.121398 -0.582074 
-0.209849 -0.112069 -0.580657 
-0.130255 0.289206 -0.812707 
-0.121162 0.306212 -0.819556 
-0.11018 0.3218 -0.82428 
-0.0997875 0.333609 -0.826878 
-0.0873878 0.346009 -0.828531 
-0.0730988 0.357345 -0.828295 
-0.0595182 0.365139 -0.825697 
-0.0460558 0.371162 -0.822154 
-0.0328295 0.37565 -0.817667 
-0.0197213 0.378956 -0.81247 
-0.00684934 0.380727 -0.80633 
0.00590456 0.380846 -0.799126 
0.0185404 0.380846 -0.791686 
0.0311762 0.379901 -0.783892 
0.043812 0.377893 -0.775272 
0.0563297 0.374587 -0.765824 
0.0688474 0.370335 -0.755786 
0.0793576 0.36573 -0.746812 
0.0875059 0.359235 -0.737718 
0.095418 0.346953 -0.724965 
0.243623 0.755078 -0.923949 
0.254842 0.759684 -0.920879 
0.26606 0.761691 -0.915801 
0.277397 0.7624 -0.909896 
0.288734 0.762636 -0.903755 
0.299953 0.761573 -0.89667 
0.307511 0.760864 -0.891828 
-0.323571 -0.217052 -0.555267 
-0.31188 -0.201819 -0.5594 
-0.298418 -0.183987 -0.56436 
-0.285664 -0.168989 -0.567785 
-0.273264 -0.15529 -0.570265 
-0.261101 -0.142773 -0.572154 
-0.249291 -0.131672 -0.573099 
-0.237718 -0.122225 -0.573217 
-0.226382 -0.113722 -0.572626 
-0.212447 -0.104983 -0.570973 
-0.201701 -0.0993151 -0.568847 
-0.128956 0.293103 -0.799953 
-0.119863 0.310227 -0.80692 
-0.108999 0.325343 -0.811526 
-0.0986065 0.33727 -0.814242 
-0.0886868 0.347189 -0.815541 
-0.0768777 0.356519 -0.815305 
-0.063061 0.364785 -0.813179 
-0.0495985 0.370808 -0.809518 
-0.0363722 0.375177 -0.805031 
-0.0232641 0.378838 -0.800071 
-0.0103921 0.380727 -0.794048 
0.00236181 0.380609 -0.786727 
0.0151157 0.380609 -0.779405 
0.0277515 0.379665 -0.771493 
0.0403873 0.378011 -0.763108 
0.052905 0.374469 -0.753425 
0.0632971 0.371162 -0.745276 
0.0716816 0.366793 -0.7376 
0.079948 0.360888 -0.729098 
0.0878602 0.348252 -0.716108 
0.240435 0.761219 -0.917218 
0.251771 0.765116 -0.913557 
0.26299 0.767478 -0.908951 
0.274327 0.768422 -0.903283 
0.285546 0.76854 -0.896906 
0.296764 0.76795 -0.890293 
0.304322 0.766769 -0.885215 
-0.337152 -0.217052 -0.548772 
-0.323925 -0.200874 -0.552787 
-0.310817 -0.184341 -0.557038 
-0.297709 -0.167926 -0.561171 
-0.285309 -0.154818 -0.563415 
-0.273146 -0.142182 -0.565423 
-0.261219 -0.1312 -0.566368 
-0.249528 -0.120808 -0.566958 
-0.238073 -0.112187 -0.566604 
-0.226972 -0.105102 -0.565305 
-0.21599 -0.0983703 -0.56377 
-0.205243 -0.0932924 -0.56129 
-0.131318 0.290624 -0.786845 
-0.125177 0.302551 -0.791804 
-0.116438 0.316958 -0.797119 
-0.105692 0.331601 -0.801488 
-0.0955362 0.342348 -0.803496 
-0.0858526 0.350614 -0.80385 
-0.0742797 0.358526 -0.802669 
-0.060581 0.365376 -0.799598 
-0.0472367 0.371044 -0.79582 
-0.0340104 0.375531 -0.79145 
-0.0210203 0.378129 -0.785782 
-0.00814835 0.37931 -0.779287 
0.00460554 0.379665 -0.772201 
0.0173594 0.379547 -0.76488 
0.0299953 0.377775 -0.756495 
0.0403873 0.374705 -0.748347 
0.0486537 0.371752 -0.741616 
0.0571563 0.369273 -0.735239 
0.0654227 0.364667 -0.727326 
0.0735711 0.357463 -0.717879 
0.0794756 0.348725 -0.708668 
0.0833727 0.340576 -0.700992 
0.235002 0.764998 -0.911549 
0.246339 0.770076 -0.908715 
0.257558 0.772083 -0.903873 
0.268777 0.773382 -0.898441 
0.280113 0.773382 -0.892064 
0.291332 0.772555 -0.885333 
0.298772 0.771965 -0.880727 
-0.35522 -0.226736 -0.540151 
-0.345182 -0.214809 -0.542985 
-0.338214 -0.205479 -0.545701 
-0.331483 -0.196386 -0.548299 
-0.321564 -0.184223 -0.55137 
-0.308928 -0.169698 -0.55444 
-0.29641 -0.156353 -0.55692 
-0.284128 -0.143363 -0.559046 
-0.272083 -0.131318 -0.560699 
-0.260274 -0.12069 -0.561408 
-0.248819 -0.111833 -0.56129 
-0.237482 -0.104039 -0.560345 
-0.226382 -0.0969532 -0.559046 
-0.215635 -0.0914029 -0.556802 
-0.205007 -0.0872697 -0.55385 
-0.125177 0.307038 -0.784128 
-0.116675 0.320383 -0.788852 
-0.106164 0.333491 -0.792277 
-0.0962447 0.343529 -0.793812 
-0.0864431 0.351913 -0.794166 
-0.0771139 0.358408 -0.79334 
-0.0681389 0.362896 -0.791332 
-0.0590458 0.367383 -0.789325 
-0.050189 0.37069 -0.786608 
-0.0413321 0.373642 -0.783538 
-0.0304677 0.376358 -0.779169 
-0.0197213 0.377539 -0.773855 
-0.0111006 0.378248 -0.769485 
-0.00259804 0.37872 -0.764998 
0.00578647 0.378248 -0.75992 
0.0142891 0.377893 -0.754724 
0.0227917 0.376949 -0.749173 
0.0310581 0.375295 -0.743269 
0.0394426 0.372579 -0.736656 
0.047709 0.369154 -0.729688 
0.0562116 0.366202 -0.722957 
0.0643599 0.359353 -0.713628 
0.0702645 0.351913 -0.705243 
0.0741615 0.344828 -0.698158 
0.228743 0.767123 -0.90659 
0.238191 0.772319 -0.904936 
0.24941 0.775154 -0.900685 
0.260628 0.776453 -0.895253 
0.271847 0.776807 -0.88923 
0.283066 0.776689 -0.882853 
0.294284 0.775744 -0.875886 
-0.363486 -0.229098 -0.533538 
-0.356519 -0.219769 -0.536254 
-0.349669 -0.210912 -0.538734 
-0.343056 -0.202645 -0.54086 
-0.336443 -0.194851 -0.542631 
-0.329948 -0.187293 -0.544284 
-0.323571 -0.179972 -0.545938 
-0.317076 -0.172296 -0.547709 
-0.310699 -0.164265 -0.549835 
-0.304322 -0.156944 -0.55137 
-0.298181 -0.150567 -0.552315 
-0.291923 -0.143836 -0.553614 
-0.285782 -0.137222 -0.554795 
-0.276807 -0.12872 -0.555621 
-0.264998 -0.118092 -0.556448 
-0.253425 -0.108408 -0.556684 
-0.242088 -0.100378 -0.556094 
-0.231223 -0.094119 -0.554204 
-0.220359 -0.0885687 -0.552078 
-0.209731 -0.083845 -0.549362 
-0.199221 -0.0798299 -0.546174 
-0.125886 0.305621 -0.774445 
-0.119981 0.316013 -0.77846 
-0.114431 0.324043 -0.781058 
-0.106637 0.333845 -0.783656 
-0.096599 0.344001 -0.785309 
-0.0869155 0.352267 -0.785664 
-0.0775862 0.358762 -0.784837 
-0.0684932 0.363722 -0.783066 
-0.0595182 0.367501 -0.780586 
-0.0506613 0.370808 -0.77787 
-0.0419226 0.373288 -0.774563 
-0.0330657 0.37565 -0.771138 
-0.024445 0.377185 -0.767241 
-0.0158243 0.378366 -0.763226 
-0.0073217 0.37872 -0.758621 
0.00118089 0.378484 -0.753661 
0.00956539 0.378248 -0.748583 
0.018068 0.377185 -0.742915 
0.0263344 0.374823 -0.736538 
0.0346008 0.372343 -0.730043 
0.0429853 0.369036 -0.723193 
0.0513698 0.366084 -0.716462 
0.0595182 0.359589 -0.707369 
0.0655408 0.352267 -0.698984 
0.0694379 0.3453 -0.692135 
0.228153 0.772674 -0.901984 
0.235711 0.776216 -0.900213 
0.243151 0.778224 -0.897378 
0.25059 0.779405 -0.894072 
0.25803 0.780231 -0.890529 
0.26547 0.780468 -0.886396 
0.273028 0.78094 -0.882617 
0.280468 0.780822 -0.878366 
0.288025 0.780231 -0.87376 
0.293694 0.779169 -0.869863 
-0.374114 -0.231578 -0.528578 
-0.367619 -0.224374 -0.529995 
-0.361124 -0.217289 -0.531412 
-0.354393 -0.209258 -0.533302 
-0.347662 -0.200638 -0.535664 
-0.341049 -0.192726 -0.537553 
-0.334554 -0.185522 -0.53897 
-0.328177 -0.1782 -0.540624 
-0.3218 -0.170524 -0.542395 
-0.315305 -0.162848 -0.544284 
-0.308928 -0.15529 -0.546056 
-0.302669 -0.148205 -0.547355 
-0.29641 -0.141474 -0.548654 
-0.290387 -0.134979 -0.549717 
-0.284247 -0.128956 -0.550543 
-0.275272 -0.120335 -0.551606 
-0.263581 -0.110298 -0.552078 
-0.252126 -0.101323 -0.551842 
-0.240907 -0.0932924 -0.551134 
-0.229924 -0.0870335 -0.54948 
-0.219296 -0.0817194 -0.547119 
-0.208786 -0.0780586 -0.543694 
-0.198394 -0.0748701 -0.540151 
-0.126358 0.302315 -0.763817 
-0.120217 0.313888 -0.768777 
-0.114667 0.322863 -0.772083 
-0.106755 0.33231 -0.774445 
-0.0967171 0.342938 -0.776334 
-0.0870336 0.35085 -0.776453 
-0.0777043 0.357345 -0.775626 
-0.0686113 0.362305 -0.773855 
-0.0596363 0.36632 -0.771493 
-0.0508975 0.368918 -0.768304 
-0.0420406 0.371752 -0.765234 
-0.0333019 0.37376 -0.761691 
-0.0246812 0.375531 -0.757912 
-0.0160605 0.376358 -0.753543 
-0.00755789 0.376358 -0.748701 
0.00094471 0.376476 -0.743977 
0.00944731 0.376949 -0.739254 
0.0178318 0.37565 -0.733585 
0.0260982 0.373288 -0.72709 
0.0343646 0.369863 -0.720123 
0.0427491 0.365966 -0.712801 
0.0510156 0.361715 -0.705125 
0.0570382 0.355338 -0.697213 
0.0609353 0.349787 -0.691308 
0.224374 0.774799 -0.897733 
0.231814 0.778932 -0.896434 
0.239372 0.781294 -0.893836 
0.246811 0.782711 -0.890529 
0.254251 0.783538 -0.886986 
0.261691 0.784365 -0.883444 
0.269131 0.784719 -0.879428 
0.276571 0.784483 -0.875177 
0.28401 0.78401 -0.870572 
0.291568 0.783302 -0.865966 
-0.390411 -0.242442 -0.519957 
-0.383444 -0.233231 -0.522556 
-0.376712 -0.225319 -0.524445 
-0.369863 -0.217171 -0.526453 
-0.36325 -0.209258 -0.528342 
-0.356401 -0.200638 -0.530704 
-0.349669 -0.192253 -0.532829 
-0.343174 -0.184577 -0.534601 
-0.336679 -0.177256 -0.536136 
-0.330302 -0.170288 -0.537553 
-0.324043 -0.163321 -0.53897 
-0.317785 -0.156117 -0.540505 
-0.311526 -0.148914 -0.542041 
-0.302078 -0.13864 -0.54393 
-0.289915 -0.12624 -0.54582 
-0.27787 -0.114549 -0.547237 
-0.266297 -0.104983 -0.547473 
-0.254842 -0.0958904 -0.547355 
-0.243741 -0.0884506 -0.546292 
-0.232759 -0.0821918 -0.544521 
-0.222012 -0.0769957 -0.542159 
-0.21162 -0.0735711 -0.538734 
-0.201228 -0.0700283 -0.535309 
-0.19367 -0.0686112 -0.531885 
-0.124232 0.307393 -0.757322 
-0.118328 0.317903 -0.761573 
-0.11018 0.329476 -0.765352 
-0.100024 0.340694 -0.767714 
-0.0903401 0.348725 -0.76795 
-0.0810109 0.355102 -0.767005 
-0.0717997 0.360179 -0.765234 
-0.0629429 0.363604 -0.762518 
-0.054086 0.366911 -0.759684 
-0.0452291 0.370335 -0.757086 
-0.0364903 0.372461 -0.753543 
-0.0278697 0.373878 -0.749528 
-0.019249 0.374941 -0.745276 
-0.0107464 0.375177 -0.740671 
-0.00224377 0.374941 -0.735593 
0.00614074 0.374705 -0.730515 
0.0145252 0.373524 -0.724846 
0.0229098 0.371044 -0.718351 
0.0311762 0.367383 -0.71103 
0.0394426 0.362896 -0.703354 
0.0474728 0.356755 -0.694379 
0.0533774 0.348134 -0.685286 
0.221776 0.778224 -0.893127 
0.231105 0.782475 -0.890765 
0.242324 0.785073 -0.886396 
0.253425 0.786963 -0.881436 
0.262754 0.787435 -0.876476 
0.270194 0.787317 -0.872225 
0.277633 0.786963 -0.867737 
0.285073 0.786136 -0.862896 
0.290742 0.785428 -0.859353 
-0.397496 -0.239017 -0.51547 
-0.387222 -0.226027 -0.518895 
-0.373878 -0.211148 -0.522201 
-0.360534 -0.195442 -0.52598 
-0.347426 -0.180326 -0.529287 
-0.334554 -0.165328 -0.532711 
-0.3218 -0.150685 -0.5359 
-0.309282 -0.136514 -0.538734 
-0.297119 -0.124114 -0.540624 
-0.285073 -0.112423 -0.542159 
-0.273382 -0.102504 -0.542513 
-0.261809 -0.0929381 -0.542749 
-0.250472 -0.0845536 -0.542277 
-0.23949 -0.0778224 -0.540742 
-0.228862 -0.0730987 -0.538144 
-0.218351 -0.0689655 -0.535073 
-0.207959 -0.0654228 -0.531649 
-0.197922 -0.0638876 -0.527043 
-0.127067 0.301724 -0.745158 
-0.121044 0.312943 -0.749764 
-0.112659 0.325815 -0.754369 
-0.102385 0.337742 -0.757204 
-0.0925839 0.346599 -0.75803 
-0.0832546 0.352976 -0.757086 
-0.0741616 0.3577 -0.755196 
-0.0629429 0.362423 -0.752008 
-0.0497166 0.366675 -0.747402 
-0.0366084 0.369863 -0.742088 
-0.0237364 0.371398 -0.735711 
-0.0108645 0.372461 -0.72898 
0.00177135 0.371989 -0.721422 
0.0122815 0.369627 -0.713746 
0.0204298 0.36632 -0.70666 
0.0285782 0.361833 -0.698866 
0.0367265 0.356401 -0.690364 
0.0447567 0.348134 -0.68009 
0.218351 0.780231 -0.887459 
0.22957 0.785782 -0.884979 
0.240789 0.788498 -0.880491 
0.251889 0.789679 -0.875059 
0.26299 0.790151 -0.869154 
0.274091 0.789679 -0.862541 
0.285309 0.788262 -0.85522 
0.292749 0.786963 -0.850142 
-0.409424 -0.241497 -0.508621 
-0.39915 -0.229216 -0.511809 
-0.388758 -0.21658 -0.515116 
-0.375413 -0.200992 -0.518659 
-0.362069 -0.185168 -0.522556 
-0.349079 -0.170288 -0.525862 
-0.336207 -0.155881 -0.528814 
-0.323571 -0.14171 -0.531885 
-0.31129 -0.12872 -0.534128 
-0.29889 -0.115257 -0.536608 
-0.286963 -0.104157 -0.537789 
-0.275272 -0.0938828 -0.53838 
-0.263817 -0.0849079 -0.538262 
-0.252598 -0.0769957 -0.537435 
-0.241734 -0.0703826 -0.536018 
-0.231105 -0.065777 -0.533302 
-0.220713 -0.0623524 -0.529877 
-0.210557 -0.0601086 -0.525744 
-0.200402 -0.0583373 -0.521257 
-0.192962 -0.0577468 -0.517359 
-0.124941 0.306212 -0.736892 
-0.116556 0.319084 -0.741497 
-0.106046 0.332074 -0.74504 
-0.0960085 0.342584 -0.74693 
-0.0865612 0.349315 -0.746221 
-0.0773501 0.354275 -0.744568 
-0.0661313 0.359235 -0.741497 
-0.0530232 0.362659 -0.736301 
-0.039915 0.366438 -0.731342 
-0.0269249 0.368564 -0.725437 
-0.014171 0.369509 -0.718588 
-0.00354277 0.368446 -0.711738 
0.00472364 0.366438 -0.705479 
0.0129901 0.363014 -0.698394 
0.0212565 0.360179 -0.691663 
0.0295229 0.355102 -0.683514 
0.0354275 0.348252 -0.675366 
0.0390883 0.340812 -0.668044 
0.21599 0.783774 -0.882145 
0.227208 0.788852 -0.879428 
0.238309 0.791214 -0.874705 
0.24941 0.792395 -0.869273 
0.26051 0.792867 -0.86325 
0.271611 0.792395 -0.856755 
0.280822 0.79145 -0.850732 
0.287435 0.789915 -0.846009 
-0.41769 -0.243151 -0.500827 
-0.410368 -0.233113 -0.504015 
-0.400094 -0.220713 -0.507204 
-0.389939 -0.208786 -0.510038 
-0.383089 -0.200638 -0.512163 
-0.37317 -0.188829 -0.514998 
-0.360061 -0.174185 -0.518186 
-0.347071 -0.158951 -0.521729 
-0.334436 -0.145489 -0.524209 
-0.321918 -0.131554 -0.527161 
-0.309636 -0.1188 -0.529287 
-0.297473 -0.106164 -0.531294 
-0.285428 -0.0942371 -0.532948 
-0.273855 -0.0847898 -0.533066 
-0.2624 -0.0754605 -0.533302 
-0.251299 -0.0680208 -0.532357 
-0.240553 -0.0622343 -0.530231 
-0.230043 -0.057983 -0.527397 
-0.21965 -0.0542041 -0.524209 
-0.209376 -0.0519603 -0.520076 
-0.199457 -0.0510156 -0.515116 
-0.192135 -0.0511337 -0.510864 
-0.125177 0.306684 -0.727563 
-0.119509 0.315541 -0.730869 
-0.111479 0.326169 -0.734058 
-0.101441 0.336679 -0.735947 
-0.0916391 0.345064 -0.736538 
-0.0823099 0.350968 -0.735357 
-0.0733349 0.355338 -0.733231 
-0.06436 0.358762 -0.730515 
-0.0556212 0.36136 -0.727208 
-0.0468824 0.363368 -0.723547 
-0.0381436 0.36573 -0.720241 
-0.0295229 0.367147 -0.716226 
-0.0209022 0.367737 -0.711738 
-0.0125177 0.367147 -0.706424 
-0.00425133 0.364785 -0.700047 
0.00413318 0.362423 -0.693434 
0.0123996 0.359589 -0.686703 
0.020666 0.355928 -0.679381 
0.0286962 0.348843 -0.669816 
0.0342465 0.338569 -0.659424 
0.210085 0.784719 -0.877657 
0.219414 0.790269 -0.876358 
0.230633 0.793458 -0.872343 
0.241734 0.795111 -0.867147 
0.252716 0.796056 -0.861479 
0.261927 0.796528 -0.856637 
0.269367 0.796056 -0.852149 
0.276807 0.795229 -0.847308 
0.282357 0.794048 -0.84341 
-0.423831 -0.241261 -0.494568 
-0.416745 -0.232877 -0.496812 
-0.409896 -0.224728 -0.498819 
-0.39974 -0.212801 -0.501653 
-0.386396 -0.197803 -0.505196 
-0.376476 -0.18623 -0.507794 
-0.366556 -0.174658 -0.510628 
-0.353684 -0.160487 -0.513581 
-0.340812 -0.145725 -0.516887 
-0.328177 -0.131436 -0.520076 
-0.315895 -0.118446 -0.522319 
-0.303614 -0.106282 -0.524091 
-0.29145 -0.0936467 -0.526216 
-0.279641 -0.0821918 -0.527752 
-0.268304 -0.0736892 -0.527397 
-0.256967 -0.0651866 -0.527043 
-0.245985 -0.0582192 -0.525862 
-0.235239 -0.0525508 -0.523855 
-0.224965 -0.0492442 -0.52043 
-0.214809 -0.0470005 -0.516297 
-0.204889 -0.0455834 -0.511691 
-0.194969 -0.0454653 -0.506259 
-0.12565 0.310463 -0.721422 
-0.117619 0.3218 -0.725083 
-0.107345 0.333018 -0.727445 
-0.0975437 0.341757 -0.728271 
-0.0880964 0.348134 -0.727445 
-0.0790033 0.353448 -0.725909 
-0.0699103 0.357936 -0.723902 
-0.0610534 0.360888 -0.720831 
-0.0521965 0.36325 -0.717525 
-0.0435758 0.365257 -0.713864 
-0.0350732 0.366084 -0.709495 
-0.0264525 0.366675 -0.705007 
-0.0180681 0.366202 -0.699811 
-0.00968354 0.364195 -0.693552 
-0.00141712 0.361479 -0.686939 
0.00684929 0.35888 -0.680326 
0.0152338 0.356637 -0.673949 
0.0233821 0.351086 -0.665446 
0.0291686 0.343174 -0.65659 
0.0329475 0.336679 -0.64974 
0.209022 0.787789 -0.872697 
0.218351 0.792985 -0.871162 
0.229452 0.796292 -0.867265 
0.240553 0.798181 -0.862187 
0.251653 0.799008 -0.856637 
0.260864 0.799008 -0.851323 
0.270076 0.797945 -0.845536 
0.277515 0.797237 -0.840694 
-0.436231 -0.245158 -0.488663 
-0.429263 -0.23701 -0.490789 
-0.422414 -0.228862 -0.492796 
-0.415565 -0.221186 -0.494568 
-0.408833 -0.213392 -0.496339 
-0.401984 -0.205598 -0.498347 
-0.392064 -0.194261 -0.500945 
-0.379074 -0.18009 -0.503779 
-0.365966 -0.165446 -0.507086 
-0.353094 -0.150921 -0.510274 
-0.34034 -0.136632 -0.513344 
-0.327704 -0.122343 -0.516533 
-0.315305 -0.10888 -0.519249 
-0.302905 -0.0955361 -0.521729 
-0.290978 -0.083845 -0.523382 
-0.279169 -0.0729806 -0.524445 
-0.267714 -0.0632971 -0.524917 
-0.256613 -0.0556212 -0.524209 
-0.245749 -0.0494804 -0.522556 
-0.235239 -0.0452291 -0.519603 
-0.224965 -0.0422768 -0.515942 
-0.214927 -0.039915 -0.512045 
-0.205007 -0.0392064 -0.506967 
-0.197685 -0.0390883 -0.502834 
-0.131318 0.308928 -0.714809 
-0.12317 0.320501 -0.718706 
-0.112896 0.332074 -0.721304 
-0.102976 0.340931 -0.722248 
-0.0935286 0.34778 -0.721776 
-0.0843174 0.35333 -0.720359 
-0.0752244 0.358054 -0.71847 
-0.0663675 0.361597 -0.715872 
-0.0576288 0.364195 -0.712683 
-0.04889 0.365966 -0.708904 
-0.0402693 0.366793 -0.704653 
-0.0317667 0.366675 -0.699693 
-0.0233822 0.366202 -0.694379 
-0.0151158 0.364077 -0.68812 
-0.00673125 0.362305 -0.682097 
0.00153517 0.360179 -0.67572 
0.00980158 0.357345 -0.669107 
0.0179499 0.352504 -0.660959 
0.025862 0.343292 -0.650094 
0.204299 0.788852 -0.8688 
0.213628 0.794403 -0.867501 
0.224728 0.798181 -0.86384 
0.235829 0.799598 -0.858644 
0.24693 0.800779 -0.853212 
0.257912 0.800425 -0.846835 
0.268895 0.799835 -0.840222 
0.276334 0.798772 -0.835262 
-0.450402 -0.254487 -0.480515 
-0.443434 -0.246103 -0.482641 
-0.436467 -0.237955 -0.484648 
-0.429499 -0.229688 -0.486774 
-0.42265 -0.221776 -0.488663 
-0.412494 -0.210085 -0.491616 
-0.39915 -0.195324 -0.494804 
-0.386042 -0.180916 -0.497992 
-0.37624 -0.169698 -0.500472 
-0.36632 -0.157889 -0.503543 
-0.35333 -0.143245 -0.506849 
-0.340694 -0.12931 -0.509684 
-0.328295 -0.116202 -0.512163 
-0.315895 -0.10274 -0.51488 
-0.303614 -0.0893954 -0.517478 
-0.291568 -0.07735 -0.519367 
-0.279759 -0.0662494 -0.520666 
-0.26854 -0.0578649 -0.52043 
-0.257322 -0.0495985 -0.520076 
-0.246575 -0.043812 -0.518304 
-0.236065 -0.0393245 -0.51547 
-0.225791 -0.0364903 -0.511809 
-0.215872 -0.034837 -0.50744 
-0.205952 -0.0338923 -0.502598 
-0.19863 -0.0337742 -0.498701 
-0.132263 0.313533 -0.710675 
-0.124114 0.324634 -0.714336 
-0.11384 0.33538 -0.716462 
-0.104157 0.344355 -0.717289 
-0.0947095 0.350732 -0.716462 
-0.0856165 0.356046 -0.714927 
-0.0765234 0.360298 -0.712801 
-0.0655409 0.363958 -0.70914 
-0.0525508 0.366675 -0.703708 
-0.0395607 0.368328 -0.697449 
-0.0290506 0.367501 -0.690954 
-0.0207842 0.366084 -0.68505 
-0.0123996 0.364313 -0.679027 
-0.00413323 0.362305 -0.672768 
0.00413318 0.360298 -0.666509 
0.0123996 0.356046 -0.658833 
0.0203117 0.348725 -0.64915 
0.0260982 0.340694 -0.640293 
0.204653 0.791923 -0.864077 
0.215871 0.797473 -0.861715 
0.226854 0.800189 -0.857463 
0.237837 0.801606 -0.852149 
0.248937 0.802078 -0.846481 
0.25992 0.801842 -0.839986 
0.269131 0.801016 -0.834199 
-0.445914 -0.244213 -0.474846 
-0.43871 -0.234884 -0.477681 
-0.428318 -0.222603 -0.480869 
-0.414856 -0.207487 -0.484412 
-0.401393 -0.191781 -0.488191 
-0.388403 -0.1782 -0.490907 
-0.375413 -0.163793 -0.494095 
-0.362541 -0.149622 -0.497166 
-0.349669 -0.134861 -0.50059 
-0.337034 -0.120572 -0.503779 
-0.324634 -0.107227 -0.506377 
-0.312116 -0.0930562 -0.509565 
-0.299835 -0.0800661 -0.512045 
-0.288026 -0.0687293 -0.513581 
-0.276216 -0.0578649 -0.514761 
-0.264998 -0.0491261 -0.514761 
-0.253897 -0.0413321 -0.514171 
-0.243151 -0.0360179 -0.512045 
-0.232759 -0.0318847 -0.509211 
-0.222721 -0.0292867 -0.50555 
-0.212801 -0.0279877 -0.500945 
-0.203 -0.0275153 -0.495749 
-0.195914 -0.0285782 -0.491025 
-0.126712 0.324516 -0.706778 
-0.116438 0.336325 -0.709731 
-0.106755 0.344946 -0.710321 
-0.0973075 0.352267 -0.710085 
-0.0880964 0.357582 -0.708668 
-0.0768777 0.362778 -0.705952 
-0.0636514 0.367029 -0.701464 
-0.0505433 0.370335 -0.696268 
-0.0377894 0.370808 -0.689419 
-0.0273973 0.369745 -0.682688 
-0.0190128 0.368092 -0.676665 
-0.0107464 0.366556 -0.670879 
-0.00236185 0.364785 -0.664856 
0.00590456 0.362305 -0.658243 
0.0139348 0.356991 -0.649858 
0.0217288 0.348134 -0.639112 
0.202055 0.793576 -0.859235 
0.213273 0.799244 -0.856991 
0.224256 0.801842 -0.852622 
0.235239 0.80385 -0.84778 
0.246221 0.804322 -0.842111 
0.257204 0.804204 -0.835735 
0.266415 0.803259 -0.829948 
-0.457841 -0.247284 -0.466462 
-0.443907 -0.230869 -0.470831 
-0.429972 -0.214572 -0.475083 
-0.416745 -0.199929 -0.478271 
-0.403637 -0.185876 -0.481342 
-0.390647 -0.17206 -0.484176 
-0.377657 -0.157652 -0.487364 
-0.364785 -0.143599 -0.490435 
-0.352031 -0.129074 -0.493741 
-0.339277 -0.114313 -0.497284 
-0.326642 -0.0999055 -0.50059 
-0.314124 -0.0859707 -0.503661 
-0.301842 -0.0723902 -0.506613 
-0.289679 -0.0596363 -0.509093 
-0.277988 -0.0487718 -0.510392 
-0.266651 -0.0396788 -0.510746 
-0.255432 -0.0314124 -0.51051 
-0.242206 -0.024445 -0.508148 
-0.226736 -0.0190127 -0.503543 
-0.211975 -0.0172414 -0.496457 
-0.199929 -0.0179499 -0.489372 
-0.129547 0.32676 -0.699693 
-0.119273 0.338923 -0.702645 
-0.109589 0.34778 -0.703472 
-0.100142 0.354865 -0.703118 
-0.0886868 0.361833 -0.701582 
-0.0752244 0.368092 -0.698276 
-0.0619981 0.371871 -0.69367 
-0.0491261 0.374114 -0.688002 
-0.0364903 0.37376 -0.680562 
-0.0238545 0.372343 -0.672414 
-0.0114549 0.369863 -0.663557 
-0.00118094 0.36632 -0.655054 
0.00684929 0.361951 -0.64726 
0.0147614 0.355102 -0.637813 
0.0225555 0.345064 -0.62624 
0.198984 0.795938 -0.854039 
0.210085 0.801606 -0.851913 
0.221068 0.804558 -0.84778 
0.23205 0.806212 -0.842938 
0.243033 0.807156 -0.837388 
0.254015 0.806684 -0.830893 
0.261337 0.806094 -0.826405 
-0.465872 -0.244213 -0.458432 
-0.451701 -0.226854 -0.463392 
-0.43812 -0.212093 -0.466816 
-0.424894 -0.197922 -0.469769 
-0.411667 -0.183869 -0.472839 
-0.398677 -0.169934 -0.475791 
-0.385687 -0.155527 -0.479098 
-0.372933 -0.141828 -0.481932 
-0.360061 -0.127303 -0.485357 
-0.347189 -0.112423 -0.489017 
-0.334672 -0.0980161 -0.492442 
-0.3218 -0.082546 -0.496575 
-0.3094 -0.0684931 -0.499764 
-0.297119 -0.0547945 -0.502952 
-0.285073 -0.0423949 -0.505314 
-0.2735 -0.0318847 -0.506495 
-0.259565 -0.0213746 -0.506495 
-0.243505 -0.0126358 -0.503897 
-0.228153 -0.00743976 -0.499291 
-0.21351 -0.00578647 -0.492324 
-0.201582 -0.00696739 -0.484884 
-0.132026 0.331011 -0.692135 
-0.121871 0.34282 -0.694851 
-0.112187 0.351559 -0.695678 
-0.100378 0.360179 -0.695087 
-0.0867974 0.367501 -0.692726 
-0.073453 0.372461 -0.688829 
-0.060463 0.375768 -0.683869 
-0.0477091 0.376358 -0.677137 
-0.0349552 0.376122 -0.669816 
-0.0225555 0.374351 -0.661431 
-0.010274 0.370454 -0.65163 
-0.000236211 0.365139 -0.641946 
0.00779402 0.358999 -0.632853 
0.0153519 0.348961 -0.621162 
0.192489 0.797119 -0.848843 
0.203472 0.802905 -0.846835 
0.214454 0.805739 -0.842702 
0.225437 0.807511 -0.83786 
0.236419 0.808337 -0.83231 
0.247402 0.808337 -0.826169 
0.256495 0.807865 -0.820737 
-0.46847 -0.236656 -0.451346 
-0.454653 -0.220713 -0.455598 
-0.441427 -0.207251 -0.458196 
-0.427964 -0.192607 -0.46162 
-0.415092 -0.179263 -0.4641 
-0.401984 -0.165328 -0.467171 
-0.388994 -0.150921 -0.470477 
-0.37624 -0.136868 -0.473547 
-0.363486 -0.122933 -0.476736 
-0.350614 -0.1077 -0.480633 
-0.337742 -0.0923476 -0.484766 
-0.32487 -0.0767596 -0.488899 
-0.312234 -0.0610534 -0.493269 
-0.299717 -0.0462919 -0.497166 
-0.287671 -0.0336561 -0.499764 
-0.27598 -0.0225555 -0.501417 
-0.264761 -0.0140529 -0.501535 
-0.251181 -0.00507792 -0.50059 
-0.235475 0.00200758 -0.497166 
-0.220595 0.00519604 -0.491143 
-0.206306 0.00448749 -0.482759 
-0.135924 0.330775 -0.681979 
-0.125531 0.344119 -0.685758 
-0.113486 0.355102 -0.686821 
-0.0994332 0.364431 -0.68564 
-0.0858526 0.371398 -0.683042 
-0.0726264 0.376358 -0.679145 
-0.0597544 0.378838 -0.673713 
-0.0470005 0.379074 -0.666745 
-0.0344828 0.377893 -0.658833 
-0.0222013 0.375059 -0.649858 
-0.00991972 0.370454 -0.639466 
-2.25242e-008 0.363604 -0.62872 
0.00767593 0.355102 -0.618092 
0.188829 0.79948 -0.842111 
0.199929 0.804913 -0.839868 
0.210912 0.807983 -0.835971 
0.221776 0.809754 -0.831129 
0.232759 0.810227 -0.825342 
0.243623 0.810109 -0.819202 
0.250945 0.809282 -0.814478 
-0.468588 -0.233113 -0.441781 
-0.454535 -0.21658 -0.446268 
-0.441072 -0.201582 -0.449929 
-0.427846 -0.187648 -0.452881 
-0.414856 -0.174185 -0.455598 
-0.402102 -0.161077 -0.458077 
-0.389112 -0.147024 -0.461266 
-0.376122 -0.132145 -0.465045 
-0.363368 -0.117855 -0.468351 
-0.350496 -0.102149 -0.472603 
-0.337388 -0.0854983 -0.477563 
-0.324398 -0.0692017 -0.482168 
-0.311762 -0.0533774 -0.486774 
-0.299126 -0.0376712 -0.491379 
-0.286845 -0.0237364 -0.494804 
-0.275154 -0.0126358 -0.496457 
-0.263935 -0.00330655 -0.497048 
-0.250236 0.0059046 -0.496457 
-0.234648 0.0134625 -0.493269 
-0.217407 0.0166509 -0.486183 
-0.136868 0.331956 -0.672532 
-0.126594 0.344946 -0.676075 
-0.116793 0.354629 -0.677492 
-0.104983 0.363368 -0.677256 
-0.0912849 0.371398 -0.675366 
-0.0779405 0.376476 -0.671705 
-0.0650685 0.378956 -0.666273 
-0.0523146 0.380019 -0.659778 
-0.0397969 0.379428 -0.65222 
-0.0272792 0.377657 -0.643954 
-0.0170052 0.374469 -0.635805 
-0.00909308 0.369627 -0.627657 
-0.00129904 0.363014 -0.618328 
0.00448746 0.356282 -0.609943 
0.183751 0.799717 -0.835616 
0.194851 0.805857 -0.833845 
0.205834 0.809046 -0.830066 
0.216698 0.811053 -0.825461 
0.227563 0.812234 -0.820265 
0.238427 0.812352 -0.814124 
0.245749 0.811998 -0.809872 
-0.471422 -0.234294 -0.433042 
-0.464336 -0.225909 -0.435404 
-0.453944 -0.213746 -0.43871 
-0.440482 -0.19863 -0.442489 
-0.427492 -0.185168 -0.445087 
-0.414502 -0.171587 -0.44804 
-0.40163 -0.158243 -0.450756 
-0.388758 -0.144072 -0.453944 
-0.376004 -0.130019 -0.457133 
-0.363132 -0.114667 -0.461148 
-0.35333 -0.103212 -0.464218 
-0.346835 -0.0950638 -0.46658 
-0.34034 -0.086325 -0.469296 
-0.333609 -0.0774681 -0.47213 
-0.326996 -0.0686112 -0.474965 
-0.320619 -0.0603448 -0.477444 
-0.314124 -0.0518422 -0.480043 
-0.30444 -0.0386159 -0.484412 
-0.291923 -0.0237364 -0.488545 
-0.279877 -0.010274 -0.491734 
-0.268422 0.000354283 -0.493269 
-0.257204 0.00968353 -0.493977 
-0.246339 0.0168871 -0.493387 
-0.235829 0.0226736 -0.491852 
-0.228153 0.0256259 -0.489844 
-0.132499 0.338687 -0.666273 
-0.122461 0.350024 -0.668753 
-0.112778 0.35888 -0.669698 
-0.103448 0.365848 -0.669462 
-0.0919934 0.372579 -0.668044 
-0.0786491 0.377657 -0.664384 
-0.0657771 0.380373 -0.659069 
-0.0529051 0.382263 -0.653165 
-0.0405055 0.381082 -0.645253 
-0.0301134 0.379192 -0.638167 
-0.0219651 0.376594 -0.631672 
-0.0139348 0.372815 -0.624232 
-0.0060227 0.367383 -0.615612 
0.00177135 0.359825 -0.605574 
0.182333 0.802551 -0.83042 
0.193316 0.808573 -0.828649 
0.204299 0.811526 -0.824634 
0.215045 0.81377 -0.820146 
0.225909 0.814832 -0.814832 
0.235002 0.814714 -0.809754 
-0.474728 -0.232522 -0.427256 
-0.467643 -0.223902 -0.429735 
-0.460676 -0.215753 -0.431979 
-0.453944 -0.208196 -0.433751 
-0.447095 -0.200401 -0.435876 
-0.437175 -0.189537 -0.438356 
-0.424185 -0.176075 -0.44119 
-0.411195 -0.162258 -0.444143 
-0.398559 -0.149032 -0.446859 
-0.385687 -0.134743 -0.450165 
-0.372933 -0.12069 -0.453472 
-0.36325 -0.109117 -0.456542 
-0.356519 -0.100142 -0.459376 
-0.349906 -0.0910486 -0.462447 
-0.343292 -0.0826641 -0.464927 
-0.336797 -0.0743977 -0.467407 
-0.330302 -0.0655409 -0.470241 
-0.323689 -0.0563297 -0.473429 
-0.317076 -0.0474728 -0.476264 
-0.310581 -0.0388521 -0.479098 
-0.304204 -0.0303495 -0.481814 
-0.294875 -0.0192489 -0.485002 
-0.282829 -0.00566839 -0.488309 
-0.271375 0.00519604 -0.489962 
-0.260156 0.0146434 -0.490789 
-0.249291 0.0222012 -0.490316 
-0.238663 0.0288144 -0.48949 
-0.231105 0.0316486 -0.487364 
-0.136396 0.339041 -0.660605 
-0.126358 0.350378 -0.663203 
-0.116556 0.359471 -0.664384 
-0.107227 0.366675 -0.664384 
-0.0980161 0.372225 -0.663321 
-0.0890411 0.376949 -0.661786 
-0.0781767 0.379901 -0.657889 
-0.0651866 0.382381 -0.652456 
-0.0546765 0.382971 -0.647024 
-0.04641 0.382263 -0.64171 
-0.0381436 0.380846 -0.636042 
-0.0299953 0.37872 -0.629901 
-0.021847 0.375413 -0.622815 
-0.0138167 0.371162 -0.615139 
-0.0060227 0.364549 -0.605692 
0.178082 0.803968 -0.82676 
0.189065 0.809754 -0.824752 
0.200047 0.813061 -0.820973 
0.210912 0.814596 -0.816013 
0.221776 0.815777 -0.810935 
0.230751 0.816131 -0.806094 
-0.477681 -0.23146 -0.419225 
-0.470713 -0.223075 -0.421705 
-0.460085 -0.209967 -0.425484 
-0.446741 -0.195087 -0.429263 
-0.433396 -0.180562 -0.432688 
-0.420524 -0.1671 -0.435404 
-0.40777 -0.153637 -0.438238 
-0.394898 -0.13982 -0.441308 
-0.382263 -0.125768 -0.444733 
-0.369036 -0.109117 -0.449575 
-0.359117 -0.0963628 -0.453472 
-0.352385 -0.0871516 -0.456542 
-0.345654 -0.0774681 -0.459967 
-0.338923 -0.0680208 -0.463155 
-0.33231 -0.0591639 -0.466108 
-0.325697 -0.0498347 -0.469296 
-0.319084 -0.0402692 -0.472721 
-0.312471 -0.0314124 -0.475673 
-0.302905 -0.0186585 -0.479806 
-0.290505 -0.00318846 -0.484412 
-0.278578 0.0101559 -0.487718 
-0.267005 0.0212565 -0.489608 
-0.256023 0.0299953 -0.49008 
-0.247874 0.0361361 -0.49008 
-0.139939 0.337034 -0.651984 
-0.129783 0.348961 -0.654936 
-0.120099 0.358408 -0.656471 
-0.110652 0.365612 -0.656471 
-0.101441 0.371871 -0.655999 
-0.090222 0.377067 -0.653637 
-0.0771139 0.381082 -0.649268 
-0.06436 0.382381 -0.643009 
-0.0518422 0.382145 -0.635687 
-0.0415683 0.380137 -0.628484 
-0.0333019 0.378011 -0.622343 
-0.0252716 0.374941 -0.615376 
-0.0174776 0.369745 -0.606991 
-0.0114549 0.36573 -0.600614 
0.170879 0.803023 -0.822036 
0.181979 0.809518 -0.820501 
0.192844 0.812825 -0.81684 
0.20359 0.815541 -0.812707 
0.214454 0.816486 -0.807393 
0.223429 0.816958 -0.802669 
-0.467052 -0.218588 -0.41025 
-0.453 -0.201228 -0.415446 
-0.439419 -0.185404 -0.419816 
-0.426547 -0.171941 -0.42265 
-0.413439 -0.157652 -0.426075 
-0.400567 -0.143127 -0.429617 
-0.387813 -0.129074 -0.432924 
-0.374705 -0.113014 -0.43753 
-0.361242 -0.0947095 -0.44367 
-0.350968 -0.0797118 -0.448984 
-0.344119 -0.069556 -0.452763 
-0.33727 -0.0595182 -0.456424 
-0.327114 -0.0446386 -0.461975 
-0.31377 -0.0251535 -0.46906 
-0.300661 -0.00649503 -0.475673 
-0.288144 0.010274 -0.481223 
-0.276098 0.0238545 -0.484884 
-0.264525 0.0357818 -0.487364 
-0.253425 0.0453472 -0.488309 
-0.242678 0.0531413 -0.488191 
-0.135333 0.342466 -0.642537 
-0.125295 0.353566 -0.645017 
-0.113368 0.36384 -0.645961 
-0.0995513 0.372815 -0.644898 
-0.0862069 0.378129 -0.641474 
-0.0733349 0.380846 -0.636278 
-0.0606991 0.381318 -0.629547 
-0.0482995 0.379665 -0.62128 
-0.036018 0.376476 -0.612069 
-0.0239726 0.370454 -0.600732 
0.166509 0.803259 -0.815423 
0.177492 0.810817 -0.814714 
0.188356 0.814832 -0.811526 
0.199102 0.816368 -0.806684 
0.209849 0.817785 -0.801606 
0.218942 0.818021 -0.796882 
-0.46103 -0.211266 -0.399976 
-0.447213 -0.194497 -0.404936 
-0.433633 -0.178318 -0.409542 
-0.420406 -0.163557 -0.413321 
-0.407534 -0.14915 -0.416863 
-0.394662 -0.134624 -0.420524 
-0.381436 -0.118564 -0.42513 
-0.368092 -0.100968 -0.430798 
-0.357818 -0.0862069 -0.436112 
-0.35085 -0.0759329 -0.440009 
-0.343883 -0.0649504 -0.444261 
-0.337034 -0.0543221 -0.448394 
-0.330066 -0.0436939 -0.452527 
-0.323099 -0.0327114 -0.457015 
-0.313061 -0.0177137 -0.462683 
-0.299835 0.00177139 -0.470005 
-0.287081 0.0198394 -0.4765 
-0.274917 0.034837 -0.480987 
-0.263462 0.0465281 -0.483349 
-0.252362 0.0565659 -0.484648 
-0.136632 0.340104 -0.631082 
-0.126594 0.351559 -0.633916 
-0.116793 0.36077 -0.635451 
-0.10522 0.369154 -0.635215 
-0.0917572 0.375413 -0.632381 
-0.0786491 0.379192 -0.628011 
-0.0660133 0.380019 -0.621398 
-0.0534955 0.379074 -0.613722 
-0.0413321 0.375531 -0.604275 
-0.0312943 0.371044 -0.595182 
0.16521 0.805031 -0.808928 
0.176075 0.811998 -0.807865 
0.186939 0.815895 -0.804676 
0.197685 0.81743 -0.799835 
0.208432 0.818375 -0.794521 
-0.45607 -0.207723 -0.390883 
-0.448866 -0.197803 -0.394308 
-0.441781 -0.188356 -0.397496 
-0.43505 -0.180208 -0.399976 
-0.428318 -0.171941 -0.402456 
-0.418281 -0.160014 -0.405763 
-0.405291 -0.145371 -0.409542 
-0.3923 -0.130137 -0.413675 
-0.382499 -0.118564 -0.416863 
-0.375886 -0.109825 -0.419698 
-0.368918 -0.0997874 -0.423359 
-0.361833 -0.088923 -0.427492 
-0.354865 -0.0781767 -0.431861 
-0.34778 -0.067076 -0.436231 
-0.340694 -0.055385 -0.441072 
-0.333609 -0.0440482 -0.445678 
-0.32676 -0.0330656 -0.450047 
-0.319792 -0.021965 -0.454653 
-0.312943 -0.0108644 -0.45914 
-0.306212 -0.000354261 -0.463274 
-0.299599 0.00956544 -0.467171 
-0.293103 0.0188947 -0.470713 
-0.286727 0.0277515 -0.473784 
-0.277515 0.0397969 -0.477799 
-0.265824 0.0531413 -0.481223 
-0.254488 0.0645961 -0.483585 
-0.130964 0.345064 -0.623996 
-0.121044 0.355928 -0.626594 
-0.111597 0.363722 -0.627185 
-0.102504 0.369036 -0.626122 
-0.0912849 0.374232 -0.62376 
-0.0782948 0.377421 -0.618918 
-0.0677846 0.377421 -0.613014 
-0.0595182 0.376358 -0.6077 
-0.0512518 0.374469 -0.601677 
-0.0432216 0.371634 -0.595064 
-0.0370808 0.370099 -0.59034 
0.159542 0.80385 -0.804676 
0.168635 0.810345 -0.80444 
0.179381 0.81495 -0.801724 
0.190128 0.817312 -0.797473 
0.200874 0.819084 -0.792749 
0.208077 0.819792 -0.789443 
-0.45666 -0.207487 -0.386396 
-0.449575 -0.198158 -0.389466 
-0.442608 -0.189301 -0.3923 
-0.435758 -0.180444 -0.395135 
-0.428791 -0.171469 -0.397969 
-0.42206 -0.163085 -0.400567 
-0.415565 -0.155645 -0.402574 
-0.409188 -0.148323 -0.404464 
-0.402574 -0.140529 -0.406708 
-0.395961 -0.132735 -0.408833 
-0.389348 -0.124587 -0.411313 
-0.382735 -0.115848 -0.414147 
-0.376004 -0.107227 -0.416982 
-0.369036 -0.0969532 -0.420761 
-0.361951 -0.0856164 -0.425248 
-0.354983 -0.0751063 -0.429381 
-0.348016 -0.0640057 -0.433751 
-0.340812 -0.0520784 -0.438829 
-0.333727 -0.0403873 -0.443788 
-0.326642 -0.0286962 -0.44863 
-0.319674 -0.0171233 -0.453472 
-0.312825 -0.00637694 -0.457841 
-0.306212 0.00389705 -0.461856 
-0.29948 0.0140529 -0.465872 
-0.292985 0.0242088 -0.470005 
-0.28649 0.0340104 -0.473666 
-0.280231 0.0428673 -0.476854 
-0.274209 0.0505432 -0.479334 
-0.268304 0.0573925 -0.481223 
-0.259684 0.0664856 -0.483231 
-0.132263 0.343647 -0.619509 
-0.122579 0.352858 -0.620926 
-0.112896 0.361833 -0.622343 
-0.103803 0.367383 -0.621516 
-0.0949457 0.371398 -0.619627 
-0.0862069 0.373996 -0.616675 
-0.0777043 0.374941 -0.612659 
-0.0693198 0.374587 -0.6077 
-0.0610534 0.37317 -0.602149 
-0.0529051 0.370217 -0.595418 
-0.0448749 0.367619 -0.588805 
0.154228 0.801252 -0.802315 
0.161431 0.807511 -0.802905 
0.168635 0.811526 -0.801842 
0.175838 0.814596 -0.800071 
0.182924 0.816131 -0.797237 
0.190128 0.817548 -0.794284 
0.197213 0.818729 -0.791214 
0.202645 0.819084 -0.788498 
-0.461502 -0.209258 -0.383798 
-0.454535 -0.200401 -0.386632 
-0.447685 -0.191899 -0.389112 
-0.4406 -0.182806 -0.392182 
-0.433633 -0.173595 -0.395253 
-0.427019 -0.165564 -0.397496 
-0.420406 -0.157652 -0.399858 
-0.413793 -0.149504 -0.402338 
-0.407298 -0.142419 -0.40411 
-0.400803 -0.135097 -0.405881 
-0.394308 -0.127185 -0.408243 
-0.387695 -0.119036 -0.410723 
-0.381082 -0.110416 -0.413557 
-0.374232 -0.101205 -0.416627 
-0.367501 -0.0914029 -0.42017 
-0.360416 -0.0801842 -0.424658 
-0.353212 -0.068257 -0.429617 
-0.346127 -0.056684 -0.434459 
-0.339041 -0.0453472 -0.439183 
-0.331956 -0.0336561 -0.444025 
-0.324988 -0.021965 -0.448984 
-0.318139 -0.0111006 -0.453472 
-0.311408 -0.000472355 -0.457723 
-0.304676 0.00968353 -0.461738 
-0.2983 0.0190128 -0.465281 
-0.291923 0.0282239 -0.468706 
-0.285546 0.0370808 -0.471776 
-0.279405 0.0452291 -0.474492 
-0.2735 0.0524327 -0.476618 
-0.267714 0.059282 -0.478507 
-0.261927 0.065659 -0.480161 
-0.256377 0.0707369 -0.480869 
-0.134388 0.344473 -0.617619 
-0.129428 0.349906 -0.618918 
-0.122107 0.357109 -0.620335 
-0.112659 0.364549 -0.62069 
-0.103566 0.369981 -0.619745 
-0.0947095 0.373642 -0.617619 
-0.0859707 0.375886 -0.614667 
-0.0774681 0.376712 -0.610534 
-0.0692017 0.37624 -0.605456 
-0.0610534 0.374351 -0.599551 
-0.0530232 0.371516 -0.592938 
-0.0447568 0.369154 -0.586561 
0.153401 0.802315 -0.800189 
0.160605 0.808455 -0.800661 
0.167808 0.812707 -0.799835 
0.174894 0.81495 -0.797473 
0.181979 0.817194 -0.795229 
0.189183 0.818493 -0.792277 
0.196268 0.81932 -0.788852 
0.2017 0.81932 -0.7859 
-0.449811 -0.198512 -0.378956 
-0.442489 -0.187648 -0.383089 
-0.435286 -0.177137 -0.386986 
-0.428318 -0.168044 -0.389939 
-0.421705 -0.160132 -0.3923 
-0.415092 -0.151984 -0.39478 
-0.408361 -0.143363 -0.397378 
-0.401866 -0.135687 -0.399504 
-0.395371 -0.128248 -0.40163 
-0.388876 -0.120335 -0.403992 
-0.382263 -0.111951 -0.40659 
-0.375295 -0.102149 -0.410132 
-0.368328 -0.091521 -0.414265 
-0.361124 -0.0795938 -0.419225 
-0.353803 -0.0669579 -0.424658 
-0.346599 -0.0547945 -0.429854 
-0.339277 -0.0422768 -0.435286 
-0.332074 -0.0295229 -0.440954 
-0.325106 -0.018068 -0.445796 
-0.318257 -0.00720357 -0.450283 
-0.311408 0.00413321 -0.455007 
-0.304558 0.0153519 -0.459731 
-0.297945 0.025744 -0.463982 
-0.291568 0.0354275 -0.467643 
-0.285309 0.0441663 -0.470831 
-0.279169 0.0521965 -0.473429 
-0.273146 0.0597544 -0.475791 
-0.26736 0.0667218 -0.477799 
-0.258739 0.0764053 -0.480279 
-0.250354 0.0846717 -0.481932 
-0.119509 0.353566 -0.610534 
-0.110298 0.359353 -0.609825 
-0.101086 0.364785 -0.608999 
-0.0922296 0.368328 -0.606637 
-0.083727 0.369509 -0.602858 
-0.0754606 0.369036 -0.597898 
-0.0671942 0.367501 -0.592111 
-0.0590458 0.365139 -0.585853 
-0.052787 0.364549 -0.581956 
0.151866 0.803377 -0.796764 
0.159069 0.809046 -0.796882 
0.167926 0.81377 -0.795465 
0.178555 0.816604 -0.791568 
0.189301 0.818611 -0.787317 
0.196504 0.819674 -0.784128 
-0.44119 -0.192726 -0.368092 
-0.433987 -0.182215 -0.372107 
-0.426783 -0.171351 -0.37624 
-0.419816 -0.161549 -0.379783 
-0.40966 -0.148795 -0.383798 
-0.39974 -0.136514 -0.387459 
-0.393009 -0.128011 -0.390293 
-0.386278 -0.119036 -0.393245 
-0.37931 -0.108762 -0.397142 
-0.372225 -0.0976618 -0.401512 
-0.364903 -0.0856164 -0.406708 
-0.357463 -0.0720359 -0.41273 
-0.349906 -0.0583373 -0.418989 
-0.342348 -0.0447567 -0.42513 
-0.334908 -0.0310581 -0.431507 
-0.327704 -0.0181861 -0.437293 
-0.320619 -0.00590456 -0.442607 
-0.313533 0.00661315 -0.448276 
-0.306566 0.0191309 -0.453826 
-0.299717 0.0304677 -0.458668 
-0.293103 0.0410959 -0.463037 
-0.28649 0.0518422 -0.467525 
-0.280113 0.0616438 -0.471304 
-0.27102 0.0739254 -0.475437 
-0.259329 0.0882145 -0.479806 
0.145371 0.800779 -0.790624 
0.154346 0.809046 -0.791686 
0.165092 0.814242 -0.789679 
0.17572 0.817785 -0.786372 
0.186349 0.819556 -0.781885 
0.193552 0.81991 -0.778106 
-0.425602 -0.176193 -0.360652 
-0.418281 -0.164738 -0.365257 
-0.407889 -0.150567 -0.370217 
-0.397615 -0.136868 -0.374823 
-0.390529 -0.12624 -0.378956 
-0.383325 -0.114549 -0.383798 
-0.376122 -0.103448 -0.388285 
-0.369036 -0.0919934 -0.393127 
-0.361479 -0.0787671 -0.399032 
-0.353803 -0.0643599 -0.405763 
-0.34589 -0.0486537 -0.413321 
-0.338096 -0.0328295 -0.420997 
-0.330539 -0.0186585 -0.427728 
-0.323217 -0.00531411 -0.433869 
-0.316013 0.00838452 -0.440246 
-0.308692 0.0222012 -0.446741 
-0.301606 0.0350732 -0.452645 
-0.294875 0.0467643 -0.457605 
-0.288144 0.057983 -0.462447 
-0.281767 0.0683751 -0.466698 
-0.272319 0.0823099 -0.472012 
-0.26051 0.0977799 -0.477208 
0.144308 0.804086 -0.785664 
0.155054 0.812589 -0.786136 
0.165683 0.816604 -0.783066 
0.176429 0.818965 -0.778932 
0.185286 0.820028 -0.774917 
-0.415446 -0.165801 -0.352622 
-0.408243 -0.155054 -0.356755 
-0.401157 -0.14419 -0.361006 
-0.393836 -0.132735 -0.36573 
-0.386632 -0.121398 -0.370335 
-0.379428 -0.110416 -0.374705 
-0.372107 -0.097898 -0.380255 
-0.364077 -0.0819556 -0.387931 
-0.35581 -0.0643599 -0.396788 
-0.34778 -0.0481814 -0.4047 
-0.33975 -0.0315304 -0.413085 
-0.331838 -0.0148795 -0.421469 
-0.32428 0.000118117 -0.428673 
-0.31684 0.0145253 -0.43564 
-0.309518 0.0286963 -0.442253 
-0.302315 0.0422768 -0.448748 
-0.295229 0.0557393 -0.455007 
-0.28838 0.0677846 -0.460321 
-0.281885 0.0782948 -0.464691 
-0.275626 0.0878602 -0.46847 
-0.266415 0.100968 -0.473429 
-0.25744 0.113132 -0.477681 
0.136868 0.801134 -0.780468 
0.145725 0.80881 -0.781176 
0.156471 0.81436 -0.779405 
0.167218 0.817666 -0.77598 
0.177846 0.819202 -0.771257 
0.184931 0.820028 -0.76795 
-0.397733 -0.147142 -0.348961 
-0.390293 -0.134624 -0.354393 
-0.382617 -0.12069 -0.360652 
-0.374705 -0.105928 -0.367619 
-0.366438 -0.0890411 -0.376004 
-0.357818 -0.0699102 -0.385923 
-0.349079 -0.0497166 -0.396552 
-0.340576 -0.0303495 -0.40659 
-0.332546 -0.0134624 -0.41521 
-0.324634 0.00318848 -0.423595 
-0.317076 0.0185404 -0.431153 
-0.309754 0.0328295 -0.438002 
-0.302315 0.0480633 -0.445442 
-0.294993 0.063061 -0.452645 
-0.287907 0.0765234 -0.459022 
-0.281176 0.0883326 -0.464336 
-0.274799 0.0984885 -0.46847 
-0.268659 0.107581 -0.472012 
-0.262636 0.115848 -0.475083 
-0.256731 0.123878 -0.477917 
-0.249528 0.132971 -0.480869 
0.131672 0.798536 -0.775035 
0.138876 0.805739 -0.776334 
0.147851 0.811644 -0.775862 
0.158597 0.815777 -0.773146 
0.169225 0.818847 -0.769485 
0.178082 0.81991 -0.76547 
-0.392419 -0.141119 -0.342702 
-0.384506 -0.126358 -0.349669 
-0.376358 -0.110061 -0.357582 
-0.367974 -0.0927019 -0.366202 
-0.359353 -0.0733349 -0.37624 
-0.350614 -0.0532593 -0.386868 
-0.34223 -0.0347189 -0.396552 
-0.333727 -0.0152338 -0.406826 
-0.325224 0.00484178 -0.417454 
-0.317194 0.0223193 -0.426429 
-0.309636 0.0381436 -0.434341 
-0.302197 0.0531413 -0.441663 
-0.295111 0.0667218 -0.44804 
-0.288262 0.0793576 -0.453826 
-0.281531 0.091521 -0.459376 
-0.274917 0.102622 -0.464218 
-0.268777 0.112187 -0.468115 
-0.262754 0.120453 -0.471186 
-0.256849 0.128366 -0.473902 
-0.251063 0.135924 -0.4765 
0.130255 0.799598 -0.770076 
0.137459 0.806566 -0.771375 
0.144662 0.811644 -0.771257 
0.153637 0.816013 -0.769603 
0.164265 0.818729 -0.765824 
0.174894 0.820501 -0.761219 
-0.303732 0.059282 -0.436821 
-0.294639 0.07735 -0.44556 
-0.287553 0.0911668 -0.452173 
-0.280704 0.103921 -0.458196 
-0.274209 0.114667 -0.462919 
-0.268068 0.124114 -0.466698 
-0.261927 0.133325 -0.470359 
-0.255905 0.142419 -0.473784 
0.124941 0.799717 -0.764407 
0.133916 0.808101 -0.765706 
0.144662 0.814124 -0.764171 
0.155409 0.817548 -0.760983 
0.166155 0.819556 -0.756731 
0.17324 0.820265 -0.753307 
-0.425602 -0.364313 -0.164265 
-0.418044 -0.353212 -0.168635 
-0.410605 -0.342466 -0.172886 
-0.403165 -0.331601 -0.177256 
-0.288262 0.104629 -0.449103 
-0.281176 0.118682 -0.45607 
-0.274445 0.1312 -0.461856 
-0.268068 0.142537 -0.466934 
-0.258857 0.156944 -0.472721 
-0.25 0.170288 -0.477799 
0.111242 0.791214 -0.754251 
0.120335 0.801842 -0.757322 
0.131082 0.8094 -0.756967 
0.141828 0.814124 -0.754724 
0.152456 0.81684 -0.750945 
0.163203 0.818847 -0.746457 
0.170288 0.819084 -0.742796 
-0.423359 -0.36325 -0.146316 
-0.408951 -0.344709 -0.152929 
-0.395253 -0.328885 -0.15777 
-0.384979 -0.317312 -0.161313 
-0.286254 0.117737 -0.442844 
-0.279287 0.132026 -0.449929 
-0.272437 0.145725 -0.456542 
-0.265706 0.158833 -0.462683 
-0.256141 0.175248 -0.470005 
-0.243977 0.194733 -0.478271 
-0.235357 0.207133 -0.482995 
0.103803 0.78897 -0.743977 
0.112896 0.799126 -0.746693 
0.123642 0.807038 -0.746693 
0.134388 0.812234 -0.744686 
0.145135 0.815423 -0.741261 
0.155763 0.817194 -0.736774 
0.162848 0.81743 -0.732995 
-0.424658 -0.366556 -0.128366 
-0.410959 -0.351323 -0.132735 
-0.397733 -0.338214 -0.135805 
-0.385097 -0.32794 -0.136986 
-0.376358 -0.323571 -0.135687 
-0.27787 0.143127 -0.443198 
-0.270784 0.15777 -0.45052 
-0.263935 0.171705 -0.457369 
-0.25744 0.184105 -0.463155 
