ply
format ascii 1.0
comment VCGLIB generated
element vertex 1612
property float x
property float y
property float z
element face 0
property list uchar int vertex_indices
end_header
-0.557481 -0.829361 0.201348 
-0.564015 -0.827848 0.198391 
-0.570068 -0.825991 0.196121 
-0.576051 -0.824203 0.193714 
-0.581829 -0.82214 0.19165 
-0.5874 -0.820008 0.189793 
-0.59414 -0.817119 0.18773 
-0.601981 -0.813474 0.18546 
-0.60934 -0.809485 0.183878 
-0.616424 -0.80522 0.182503 
-0.623165 -0.800681 0.181609 
-0.629767 -0.796004 0.18099 
-0.635957 -0.790983 0.180852 
-0.642079 -0.785825 0.180921 
-0.647856 -0.780391 0.181471 
-0.653496 -0.774752 0.182228 
-0.658929 -0.768905 0.183397 
-0.663881 -0.762578 0.185116 
-0.66904 -0.756388 0.186698 
-0.673785 -0.749785 0.188762 
-0.678393 -0.742907 0.191238 
-0.682726 -0.735823 0.194058 
-0.0860759 -0.775027 0.544895 
-0.0961863 -0.773445 0.539737 
-0.106709 -0.772138 0.534166 
-0.114619 -0.771175 0.529901 
-0.225352 -0.823309 0.420475 
-0.231954 -0.823859 0.415867 
-0.238488 -0.824409 0.411259 
-0.244953 -0.824891 0.406857 
-0.253551 -0.825028 0.401355 
-0.26373 -0.824341 0.395371 
-0.273152 -0.82324 0.390282 
-0.282369 -0.822071 0.385398 
-0.290691 -0.820283 0.381478 
-0.298669 -0.818357 0.37797 
-0.306372 -0.816362 0.374738 
-0.313525 -0.813886 0.372124 
-0.320266 -0.811204 0.369923 
-0.326524 -0.808246 0.368273 
-0.332508 -0.805083 0.367035 
-0.338217 -0.801713 0.366003 
-0.34365 -0.798205 0.365315 
-0.350253 -0.793597 0.364765 
-0.357681 -0.787751 0.364627 
-0.364834 -0.781698 0.364765 
-0.371574 -0.775439 0.365315 
-0.376732 -0.769868 0.366278 
-0.472196 -0.832525 0.258709 
-0.477905 -0.833488 0.254445 
-0.483407 -0.834313 0.250318 
-0.491042 -0.83507 0.244953 
-0.500464 -0.83562 0.238626 
-0.509474 -0.835895 0.23278 
-0.518278 -0.836033 0.22714 
-0.527081 -0.836308 0.2215 
-0.535266 -0.836102 0.216548 
-0.5429 -0.835414 0.212353 
-0.549985 -0.834382 0.208707 
-0.556656 -0.833144 0.205475 
-0.56319 -0.8317 0.202586 
-0.569655 -0.830256 0.199697 
-0.575708 -0.828467 0.197221 
-0.581691 -0.826541 0.194883 
-0.587537 -0.824684 0.192613 
-0.59304 -0.822484 0.190894 
-0.598404 -0.820214 0.189174 
-0.6037 -0.817875 0.187592 
-0.610097 -0.81478 0.185873 
-0.61725 -0.810654 0.184291 
-0.624265 -0.806321 0.183122 
-0.630661 -0.801575 0.18264 
-0.637195 -0.796898 0.18209 
-0.643385 -0.791877 0.182021 
-0.6493 -0.786581 0.182296 
-0.655078 -0.781217 0.182847 
-0.660511 -0.775439 0.183878 
-0.665669 -0.769318 0.185392 
-0.670897 -0.763266 0.186767 
-0.675711 -0.7568 0.188762 
-0.680457 -0.750198 0.190825 
-0.684171 -0.744352 0.193026 
-0.686922 -0.739468 0.195158 
-0.688848 -0.735686 0.19674 
-0.0849067 -0.77145 0.55473 
-0.0940542 -0.769181 0.550741 
-0.103133 -0.766911 0.546752 
-0.113106 -0.765329 0.541662 
-0.232986 -0.825647 0.419925 
-0.239795 -0.826404 0.415111 
-0.246467 -0.827092 0.410365 
-0.252725 -0.827436 0.406101 
-0.258572 -0.827642 0.402318 
-0.266206 -0.82716 0.397778 
-0.275766 -0.826198 0.392483 
-0.284914 -0.82496 0.387668 
-0.293442 -0.823378 0.383541 
-0.301352 -0.821452 0.380034 
-0.30878 -0.819182 0.377145 
-0.316139 -0.816981 0.374256 
-0.323223 -0.814505 0.371712 
-0.329482 -0.811548 0.370061 
-0.335672 -0.80859 0.368479 
-0.34138 -0.80522 0.367447 
-0.346676 -0.801575 0.367035 
-0.351903 -0.797861 0.366622 
-0.357131 -0.794216 0.36614 
-0.361945 -0.790295 0.366072 
-0.36676 -0.786375 0.366072 
-0.371574 -0.782386 0.36614 
-0.376182 -0.778259 0.366416 
-0.380103 -0.773651 0.367516 
-0.382854 -0.770006 0.368548 
-0.476392 -0.833419 0.261323 
-0.482032 -0.834313 0.257127 
-0.487603 -0.835276 0.252932 
-0.49283 -0.835895 0.249149 
-0.497782 -0.836308 0.24571 
-0.502596 -0.836721 0.24234 
-0.507548 -0.837202 0.238901 
-0.512294 -0.837615 0.2356 
-0.519172 -0.837959 0.23106 
-0.527838 -0.838096 0.225558 
-0.536091 -0.837959 0.220537 
-0.543863 -0.837408 0.216135 
-0.551016 -0.836446 0.212421 
-0.558238 -0.83562 0.20857 
-0.565116 -0.834451 0.2052 
-0.571581 -0.833075 0.202173 
-0.577633 -0.831356 0.199766 
-0.583548 -0.82943 0.197496 
-0.589326 -0.827436 0.195364 
-0.594897 -0.825372 0.19337 
-0.600468 -0.82324 0.191513 
-0.605764 -0.82097 0.189793 
-0.610784 -0.818426 0.188487 
-0.615736 -0.815812 0.187249 
-0.62062 -0.813199 0.186148 
-0.625297 -0.810379 0.185323 
-0.630936 -0.806665 0.184566 
-0.637539 -0.802125 0.183878 
-0.643867 -0.797242 0.183603 
-0.649988 -0.792221 0.183534 
-0.655903 -0.786994 0.183878 
-0.661405 -0.781285 0.184772 
-0.66677 -0.775508 0.185873 
-0.671103 -0.770487 0.187042 
-0.674473 -0.766361 0.188143 
-0.677706 -0.762096 0.189381 
-0.681007 -0.757901 0.190619 
-0.684102 -0.753362 0.192132 
-0.687197 -0.74896 0.193576 
-0.690223 -0.74442 0.195227 
-0.692837 -0.739331 0.197428 
-0.6949 -0.735617 0.199078 
-0.092541 -0.766017 0.559889 
-0.0992125 -0.764228 0.557069 
-0.106022 -0.762509 0.554111 
-0.113587 -0.759345 0.551773 
-0.246054 -0.828536 0.415179 
-0.252863 -0.829293 0.410296 
-0.258709 -0.829499 0.406444 
-0.264349 -0.829568 0.402868 
-0.269851 -0.829499 0.399429 
-0.275078 -0.829293 0.396265 
-0.279893 -0.82888 0.393583 
-0.286702 -0.827917 0.390007 
-0.295093 -0.826266 0.386017 
-0.303277 -0.824547 0.382235 
-0.310774 -0.822277 0.379208 
-0.317927 -0.819939 0.376595 
-0.325218 -0.817738 0.373775 
-0.331751 -0.814918 0.371849 
-0.337735 -0.811823 0.370542 
-0.34365 -0.80859 0.369236 
-0.349015 -0.805083 0.368616 
-0.354242 -0.801369 0.368204 
-0.359469 -0.797792 0.367722 
-0.364352 -0.793872 0.367654 
-0.369167 -0.79002 0.367585 
-0.373981 -0.786031 0.367585 
-0.378383 -0.781767 0.368066 
-0.382579 -0.777434 0.368823 
-0.386224 -0.772551 0.370336 
-0.388493 -0.768493 0.372055 
-0.485471 -0.835208 0.260016 
-0.491317 -0.836308 0.255476 
-0.49675 -0.837202 0.25135 
-0.501909 -0.837821 0.247636 
-0.506929 -0.838371 0.244059 
-0.511606 -0.838715 0.240895 
-0.516146 -0.838922 0.237938 
-0.520823 -0.839197 0.234774 
-0.5255 -0.839541 0.231679 
-0.532102 -0.839816 0.227346 
-0.540287 -0.839609 0.222394 
-0.548128 -0.839128 0.217855 
-0.555487 -0.83844 0.213866 
-0.562571 -0.837477 0.21022 
-0.569242 -0.836239 0.206988 
-0.575639 -0.834726 0.204168 
-0.58176 -0.833075 0.201623 
-0.587744 -0.831287 0.199216 
-0.593521 -0.829361 0.197015 
-0.59923 -0.827367 0.194883 
-0.604526 -0.825097 0.193232 
-0.60989 -0.822896 0.191375 
-0.614911 -0.82042 0.190068 
-0.620001 -0.817944 0.188762 
-0.624815 -0.815262 0.187661 
-0.629492 -0.812511 0.186836 
-0.6341 -0.809622 0.186079 
-0.638502 -0.806596 0.185667 
-0.642766 -0.803363 0.18546 
-0.647168 -0.800406 0.185048 
-0.651226 -0.797036 0.185048 
-0.655284 -0.793734 0.184979 
-0.659135 -0.790158 0.185323 
-0.662987 -0.786513 0.185667 
-0.666632 -0.78273 0.186286 
-0.670278 -0.778947 0.186973 
-0.673716 -0.774958 0.187936 
-0.677018 -0.770831 0.188968 
-0.680388 -0.766705 0.190068 
-0.68362 -0.762509 0.191306 
-0.686922 -0.758245 0.192476 
-0.689948 -0.753705 0.194126 
-0.692906 -0.749097 0.195846 
-0.695725 -0.744283 0.197772 
-0.698408 -0.739331 0.199904 
-0.700265 -0.73541 0.201692 
-0.101138 -0.757213 0.567454 
-0.109117 -0.754256 0.564772 
-0.252932 -0.831287 0.414767 
-0.259534 -0.831906 0.41009 
-0.265381 -0.832113 0.406238 
-0.271089 -0.832181 0.402593 
-0.276454 -0.832044 0.399292 
-0.281337 -0.8317 0.396472 
-0.288421 -0.830943 0.39262 
-0.297087 -0.829499 0.388287 
-0.305341 -0.827848 0.384435 
-0.313319 -0.825991 0.38079 
-0.320816 -0.823928 0.377764 
-0.327625 -0.821314 0.375494 
-0.334159 -0.818563 0.373569 
-0.34028 -0.815537 0.372055 
-0.345989 -0.812236 0.371024 
-0.351628 -0.808934 0.370061 
-0.357131 -0.805427 0.369304 
-0.362289 -0.801781 0.368892 
-0.367241 -0.797999 0.368754 
-0.371918 -0.793941 0.368892 
-0.376732 -0.790089 0.368892 
-0.381203 -0.785894 0.369304 
-0.385398 -0.781561 0.369992 
-0.389181 -0.776815 0.37123 
-0.392207 -0.77145 0.3735 
-0.495031 -0.837615 0.258021 
-0.500602 -0.838578 0.253826 
-0.506035 -0.839472 0.249699 
-0.511194 -0.84016 0.245916 
-0.516146 -0.84071 0.242477 
-0.521029 -0.841191 0.239107 
-0.525775 -0.841604 0.235737 
-0.532377 -0.84181 0.231542 
-0.540906 -0.841879 0.226108 
-0.548884 -0.841535 0.221431 
-0.55645 -0.840985 0.217167 
-0.563603 -0.840228 0.213315 
-0.570343 -0.83899 0.210083 
-0.576877 -0.837684 0.207057 
-0.583067 -0.836033 0.204374 
-0.589394 -0.834589 0.201486 
-0.595172 -0.832732 0.199216 
-0.600743 -0.830599 0.19729 
-0.606314 -0.828536 0.195296 
-0.61161 -0.826335 0.193507 
-0.616699 -0.823859 0.192201 
-0.62172 -0.821383 0.190894 
-0.62681 -0.818976 0.189518 
-0.631624 -0.816362 0.188418 
-0.636232 -0.813542 0.18773 
-0.640703 -0.810585 0.187111 
-0.645105 -0.807559 0.186767 
-0.649507 -0.804532 0.186286 
-0.653702 -0.801369 0.186148 
-0.65776 -0.797999 0.186148 
-0.662712 -0.793734 0.186354 
-0.668352 -0.788232 0.187042 
-0.672822 -0.783555 0.187799 
-0.67633 -0.779635 0.188624 
-0.679769 -0.775646 0.189587 
-0.683139 -0.771519 0.190619 
-0.686372 -0.767324 0.191788 
-0.689604 -0.763128 0.193026 
-0.692768 -0.758726 0.194401 
-0.695725 -0.754187 0.196121 
-0.698752 -0.749648 0.197772 
-0.701572 -0.744902 0.199629 
-0.704185 -0.739881 0.201967 
-0.259741 -0.833557 0.415042 
-0.266412 -0.834313 0.410227 
-0.272396 -0.834657 0.406238 
-0.278036 -0.834726 0.402593 
-0.283538 -0.834726 0.399154 
-0.288559 -0.834382 0.396197 
-0.29578 -0.833832 0.392139 
-0.304447 -0.832456 0.387806 
-0.312081 -0.830393 0.384573 
-0.319715 -0.82833 0.38134 
-0.326937 -0.82606 0.378658 
-0.333884 -0.823584 0.376182 
-0.340418 -0.820902 0.374188 
-0.346332 -0.817738 0.37295 
-0.352041 -0.814437 0.371918 
-0.35775 -0.811204 0.370886 
-0.362908 -0.807628 0.370405 
-0.36786 -0.803776 0.370267 
-0.372812 -0.799993 0.37013 
-0.377626 -0.796142 0.370061 
-0.382372 -0.792152 0.37013 
-0.386774 -0.787957 0.370611 
-0.390763 -0.783486 0.371574 
-0.39434 -0.778534 0.373156 
-0.396609 -0.772619 0.376251 
-0.397503 -0.76753 0.379621 
-0.49902 -0.838784 0.260841 
-0.50466 -0.839816 0.256508 
-0.510368 -0.840916 0.252038 
-0.515871 -0.841948 0.247842 
-0.520891 -0.842567 0.244197 
-0.525775 -0.843117 0.240827 
-0.530589 -0.84353 0.237457 
-0.537329 -0.843874 0.232986 
-0.545789 -0.843942 0.22769 
-0.553561 -0.84353 0.223151 
-0.561195 -0.843048 0.218818 
-0.568417 -0.842292 0.214897 
-0.575226 -0.84126 0.211458 
-0.58176 -0.839953 0.208363 
-0.588088 -0.83844 0.205612 
-0.594071 -0.836721 0.203067 
-0.59978 -0.834795 0.200867 
-0.605489 -0.832869 0.198597 
-0.611128 -0.830875 0.196465 
-0.616355 -0.828605 0.194883 
-0.621514 -0.826335 0.193301 
-0.626603 -0.823859 0.191994 
-0.631555 -0.821383 0.190825 
-0.636301 -0.81877 0.189862 
-0.641116 -0.816156 0.18883 
-0.646687 -0.812442 0.188211 
-0.653221 -0.807834 0.187661 
-0.659411 -0.803088 0.187386 
-0.665394 -0.797999 0.187524 
-0.671172 -0.792771 0.187936 
-0.676674 -0.787269 0.188762 
-0.681144 -0.782386 0.189793 
-0.684446 -0.778259 0.190894 
-0.687678 -0.774133 0.191994 
-0.691049 -0.770006 0.193026 
-0.694281 -0.765879 0.194195 
-0.697445 -0.761546 0.195571 
-0.700471 -0.757076 0.197153 
-0.70336 -0.752467 0.198872 
-0.706111 -0.747584 0.200935 
-0.708862 -0.74277 0.20293 
-0.71065 -0.738781 0.204924 
-0.268407 -0.836583 0.413185 
-0.274597 -0.836996 0.408852 
-0.280649 -0.83734 0.404794 
-0.286152 -0.837408 0.401286 
-0.293442 -0.836858 0.397159 
-0.302246 -0.835551 0.39262 
-0.310774 -0.834107 0.388356 
-0.318684 -0.83225 0.384917 
-0.326249 -0.830187 0.381753 
-0.333333 -0.827848 0.37914 
-0.339936 -0.825166 0.377007 
-0.346057 -0.822208 0.375563 
-0.352041 -0.819182 0.374119 
-0.35775 -0.815881 0.373087 
-0.363183 -0.812442 0.372331 
-0.36841 -0.808934 0.371849 
-0.373431 -0.805151 0.371574 
-0.378246 -0.801231 0.371574 
-0.382991 -0.797311 0.371643 
-0.387599 -0.793322 0.371849 
-0.391726 -0.788989 0.372674 
-0.395646 -0.784449 0.373706 
-0.398535 -0.779016 0.376045 
-0.40053 -0.772826 0.379552 
-0.400736 -0.767186 0.383748 
-0.400392 -0.76299 0.387187 
-0.509887 -0.841466 0.257471 
-0.515733 -0.842773 0.252863 
-0.521235 -0.843736 0.248599 
-0.526462 -0.844561 0.244747 
-0.531346 -0.845112 0.241308 
-0.535954 -0.845455 0.238144 
-0.540424 -0.845662 0.235118 
-0.54689 -0.845868 0.230991 
-0.554868 -0.845593 0.226246 
-0.562571 -0.845112 0.221775 
-0.56993 -0.844493 0.217717 
-0.576739 -0.843461 0.214278 
-0.583342 -0.842223 0.211115 
-0.589601 -0.84071 0.208295 
-0.595722 -0.839128 0.205544 
-0.601706 -0.837477 0.20293 
-0.607414 -0.83562 0.20066 
-0.612985 -0.833557 0.198666 
-0.618281 -0.831356 0.196946 
-0.623577 -0.829155 0.195364 
-0.628667 -0.826748 0.19392 
-0.633619 -0.824341 0.192682 
-0.63864 -0.821933 0.191375 
-0.643317 -0.819182 0.190619 
-0.647787 -0.816362 0.189931 
-0.652326 -0.813542 0.189312 
-0.656659 -0.810516 0.188899 
-0.660786 -0.807284 0.188762 
-0.664982 -0.804051 0.188624 
-0.668902 -0.80075 0.188693 
-0.672685 -0.797173 0.189106 
-0.676468 -0.793597 0.189518 
-0.680044 -0.789814 0.190206 
-0.68362 -0.786031 0.190894 
-0.687197 -0.78218 0.191582 
-0.690567 -0.77819 0.192544 
-0.6938 -0.773995 0.193782 
-0.697032 -0.769868 0.194952 
-0.700196 -0.765535 0.196258 
-0.703222 -0.761133 0.197772 
-0.706317 -0.756732 0.199285 
-0.709206 -0.752055 0.201073 
-0.711682 -0.746965 0.203411 
-0.714364 -0.741944 0.205681 
-0.277486 -0.839541 0.410227 
-0.283744 -0.840022 0.405894 
-0.289109 -0.840022 0.402524 
-0.293992 -0.839609 0.399704 
-0.298807 -0.839265 0.397022 
-0.303415 -0.838715 0.394477 
-0.309536 -0.837546 0.391588 
-0.317652 -0.835827 0.387806 
-0.325286 -0.833763 0.384642 
-0.332508 -0.831562 0.381822 
-0.339317 -0.829018 0.379552 
-0.345713 -0.826266 0.377626 
-0.351972 -0.823378 0.375976 
-0.357681 -0.820145 0.374944 
-0.363389 -0.816913 0.373844 
-0.36841 -0.813199 0.373569 
-0.373431 -0.809485 0.373362 
-0.378452 -0.80577 0.373087 
-0.38306 -0.801781 0.373293 
-0.387737 -0.797792 0.373431 
-0.392345 -0.793734 0.373706 
-0.396265 -0.789264 0.374669 
-0.399636 -0.784312 0.376388 
-0.401768 -0.778259 0.379759 
-0.402662 -0.77317 0.383129 
-0.402662 -0.769318 0.386017 
-0.402387 -0.765191 0.389388 
-0.510368 -0.84236 0.26146 
-0.516627 -0.843942 0.256302 
-0.52268 -0.845387 0.251419 
-0.528044 -0.846281 0.247361 
-0.533065 -0.846969 0.243715 
-0.537673 -0.847312 0.240552 
-0.542144 -0.847519 0.237663 
-0.546614 -0.847794 0.234637 
-0.55081 -0.847863 0.231954 
-0.554799 -0.847656 0.229616 
-0.560714 -0.84745 0.226177 
-0.568004 -0.846762 0.222119 
-0.575226 -0.846074 0.218199 
-0.582104 -0.845112 0.214622 
-0.588638 -0.843805 0.211458 
-0.594759 -0.842223 0.208707 
-0.600812 -0.840641 0.206025 
-0.606658 -0.838853 0.203618 
-0.612298 -0.836927 0.201486 
-0.617731 -0.834864 0.19956 
-0.623165 -0.8328 0.197703 
-0.628392 -0.830531 0.19619 
-0.633206 -0.827917 0.195158 
-0.638296 -0.825579 0.193782 
-0.64311 -0.823034 0.192682 
-0.647856 -0.82042 0.191788 
-0.652326 -0.817532 0.191169 
-0.656659 -0.814574 0.190687 
-0.660924 -0.811479 0.190412 
-0.665188 -0.808384 0.190206 
-0.669246 -0.805151 0.190068 
-0.673166 -0.801781 0.190275 
-0.676949 -0.798205 0.19055 
-0.680732 -0.794628 0.191031 
-0.684308 -0.790846 0.19165 
-0.687747 -0.786994 0.192544 
-0.691255 -0.783074 0.19337 
-0.694487 -0.779016 0.19447 
-0.697789 -0.774889 0.195639 
-0.701021 -0.770762 0.19674 
-0.704185 -0.766498 0.198047 
-0.70728 -0.762165 0.199491 
-0.710169 -0.757488 0.201279 
-0.712851 -0.752605 0.203343 
-0.715534 -0.747722 0.205475 
-0.718078 -0.742632 0.207813 
-0.719935 -0.738712 0.209739 
-0.278517 -0.841122 0.413116 
-0.284638 -0.841535 0.408989 
-0.290347 -0.841741 0.405206 
-0.295643 -0.841673 0.401974 
-0.300389 -0.841191 0.39936 
-0.30479 -0.840572 0.397022 
-0.309192 -0.839953 0.394752 
-0.313525 -0.839265 0.39262 
-0.317652 -0.838509 0.390626 
-0.323636 -0.837202 0.387874 
-0.331132 -0.83507 0.384779 
-0.338217 -0.832732 0.382235 
-0.345094 -0.830324 0.379759 
-0.351422 -0.827573 0.37797 
-0.357268 -0.824409 0.376801 
-0.36277 -0.821039 0.375976 
-0.368204 -0.8176 0.37515 
-0.373293 -0.813955 0.374875 
-0.378314 -0.810241 0.3746 
-0.38306 -0.806321 0.374738 
-0.387737 -0.8024 0.374807 
-0.392276 -0.798411 0.375082 
-0.396334 -0.793941 0.375907 
-0.400255 -0.78947 0.377007 
-0.403212 -0.784174 0.379208 
-0.405 -0.777915 0.382922 
-0.405413 -0.772344 0.386911 
-0.405 -0.768218 0.39035 
-0.404588 -0.763953 0.393927 
-0.516283 -0.844424 0.260979 
-0.522267 -0.845799 0.256164 
-0.528182 -0.847106 0.251487 
-0.533547 -0.848069 0.247361 
-0.53843 -0.848619 0.24399 
-0.542969 -0.848963 0.240827 
-0.547371 -0.849101 0.238007 
-0.551566 -0.84917 0.235393 
-0.555693 -0.84917 0.23278 
-0.559682 -0.849101 0.230372 
-0.563534 -0.848826 0.228172 
-0.567385 -0.848688 0.225902 
-0.573025 -0.848344 0.222669 
-0.580041 -0.847519 0.218886 
-0.586781 -0.846418 0.215516 
-0.593108 -0.845043 0.21249 
-0.599505 -0.843667 0.209395 
-0.605282 -0.84181 0.207057 
-0.610991 -0.839953 0.204787 
-0.616699 -0.838096 0.202586 
-0.622133 -0.836102 0.200729 
-0.627498 -0.833901 0.19901 
-0.632587 -0.831631 0.197565 
-0.637677 -0.829293 0.19619 
-0.642698 -0.826954 0.194814 
-0.647374 -0.824272 0.193989 
-0.651983 -0.821452 0.193232 
-0.656522 -0.818701 0.192476 
-0.660924 -0.815743 0.192063 
-0.665188 -0.812786 0.19165 
-0.669315 -0.809553 0.191582 
-0.673441 -0.806389 0.191444 
-0.677362 -0.802951 0.19165 
-0.681007 -0.799374 0.192132 
-0.684721 -0.795729 0.192613 
-0.688229 -0.791946 0.193301 
-0.691736 -0.788095 0.194126 
-0.695175 -0.784174 0.194952 
-0.698545 -0.780185 0.195983 
-0.701778 -0.776058 0.197153 
-0.704942 -0.771794 0.198459 
-0.708037 -0.767461 0.199835 
-0.711132 -0.763059 0.201348 
-0.713952 -0.758382 0.203205 
-0.716772 -0.753774 0.204993 
-0.719523 -0.74896 0.206988 
-0.722068 -0.743939 0.209326 
-0.283813 -0.842498 0.414148 
-0.290553 -0.843392 0.409196 
-0.296262 -0.843598 0.405482 
-0.301352 -0.843392 0.402387 
-0.306235 -0.843048 0.399567 
-0.31098 -0.842636 0.396953 
-0.315451 -0.842085 0.394546 
-0.321572 -0.840847 0.391657 
-0.329207 -0.838922 0.388425 
-0.336566 -0.836721 0.385536 
-0.343375 -0.834245 0.383129 
-0.350046 -0.8317 0.380997 
-0.356512 -0.828949 0.379071 
-0.362289 -0.825854 0.377902 
-0.367791 -0.822415 0.377145 
-0.373225 -0.819045 0.37632 
-0.378314 -0.815468 0.375976 
-0.383129 -0.811548 0.375976 
-0.387943 -0.807765 0.375907 
-0.392483 -0.803776 0.376182 
-0.397022 -0.799787 0.376457 
-0.400942 -0.795247 0.377489 
-0.40445 -0.790433 0.379071 
-0.407201 -0.784931 0.381547 
-0.408508 -0.780185 0.384435 
-0.408714 -0.77654 0.387118 
-0.408508 -0.772482 0.39035 
-0.408095 -0.768218 0.393858 
-0.407545 -0.763885 0.397572 
-0.406995 -0.759483 0.401355 
-0.526944 -0.847381 0.257471 
-0.532859 -0.848757 0.252657 
-0.538223 -0.84972 0.248599 
-0.543176 -0.850339 0.245022 
-0.547784 -0.850683 0.241927 
-0.552117 -0.85082 0.239107 
-0.556312 -0.850889 0.236494 
-0.562227 -0.850683 0.232917 
-0.569861 -0.850201 0.228584 
-0.577358 -0.849857 0.224182 
-0.584305 -0.848963 0.220468 
-0.591183 -0.847931 0.216823 
-0.597648 -0.846693 0.213591 
-0.603769 -0.845112 0.210908 
-0.609546 -0.843323 0.208501 
-0.615393 -0.841535 0.206163 
-0.621032 -0.839678 0.20403 
-0.626466 -0.837684 0.202173 
-0.631831 -0.835551 0.200385 
-0.63692 -0.833282 0.198941 
-0.641941 -0.830875 0.197634 
-0.646824 -0.828399 0.196465 
-0.65157 -0.825854 0.195571 
-0.656316 -0.82324 0.194608 
-0.660924 -0.820489 0.193851 
-0.665257 -0.817532 0.193439 
-0.669521 -0.814574 0.193026 
-0.673716 -0.811479 0.19282 
-0.677706 -0.808109 0.192888 
-0.681488 -0.80467 0.193163 
-0.685202 -0.801162 0.193645 
-0.688985 -0.797586 0.193989 
-0.692562 -0.793872 0.194608 
-0.696001 -0.789952 0.195502 
-0.699439 -0.786031 0.196396 
-0.702741 -0.782042 0.197359 
-0.705973 -0.777847 0.198597 
-0.709137 -0.77372 0.199766 
-0.712232 -0.769387 0.20121 
-0.715258 -0.764985 0.202792 
-0.718147 -0.760446 0.204512 
-0.720898 -0.755631 0.206506 
-0.723512 -0.750748 0.208639 
-0.726125 -0.745727 0.210908 
-0.728464 -0.740431 0.213522 
-0.296675 -0.845662 0.409471 
-0.302314 -0.845868 0.405757 
-0.307473 -0.845731 0.402662 
-0.312081 -0.84518 0.400117 
-0.318684 -0.844217 0.396747 
-0.326868 -0.842636 0.392895 
-0.334778 -0.840916 0.38925 
-0.342068 -0.838715 0.386361 
-0.348808 -0.836239 0.384092 
-0.35548 -0.833626 0.381959 
-0.36167 -0.830806 0.380309 
-0.367447 -0.827711 0.379071 
-0.372812 -0.824203 0.378521 
-0.378108 -0.820764 0.377833 
-0.38306 -0.81705 0.377626 
-0.388012 -0.813336 0.377489 
-0.392551 -0.809347 0.377695 
-0.397297 -0.805427 0.377764 
-0.401493 -0.801231 0.378383 
-0.405344 -0.796692 0.379552 
-0.408645 -0.791671 0.381409 
-0.410984 -0.785894 0.384435 
-0.412084 -0.779085 0.388975 
-0.411809 -0.773032 0.393789 
-0.411534 -0.768905 0.397159 
-0.411121 -0.76471 0.400667 
-0.410571 -0.760308 0.404381 
-0.531483 -0.849238 0.258915 
-0.537329 -0.850545 0.25417 
-0.542625 -0.851508 0.250181 
-0.54744 -0.851989 0.246742 
-0.552117 -0.852402 0.243509 
-0.55645 -0.852608 0.240689 
-0.560576 -0.852608 0.238144 
-0.566698 -0.852608 0.234362 
-0.574538 -0.852402 0.229616 
-0.581623 -0.851646 0.225764 
-0.588638 -0.850751 0.221913 
-0.595516 -0.849789 0.218199 
-0.601843 -0.848413 0.215172 
-0.607896 -0.846969 0.212421 
-0.613879 -0.845318 0.209877 
-0.619657 -0.843598 0.207538 
-0.625297 -0.841741 0.205406 
-0.63073 -0.839678 0.203549 
-0.636026 -0.837546 0.201898 
-0.641253 -0.835414 0.200248 
-0.646205 -0.833007 0.19901 
-0.651157 -0.830599 0.197772 
-0.655903 -0.828055 0.196809 
-0.660511 -0.825372 0.195983 
-0.664982 -0.822484 0.195433 
-0.669383 -0.819595 0.194952 
-0.673648 -0.816637 0.194539 
-0.677706 -0.813405 0.19447 
-0.681764 -0.810241 0.194401 
-0.685615 -0.806802 0.194677 
-0.689398 -0.803294 0.19502 
-0.693043 -0.799718 0.195502 
-0.69662 -0.796004 0.196121 
-0.700196 -0.79229 0.196809 
-0.703497 -0.788301 0.19784 
-0.706799 -0.784243 0.198872 
-0.7101 -0.780185 0.199972 
-0.713264 -0.776058 0.201142 
-0.716359 -0.771794 0.202517 
-0.719385 -0.767324 0.204099 
-0.722343 -0.762853 0.20575 
-0.725163 -0.758107 0.207607 
-0.727776 -0.753293 0.20967 
-0.730321 -0.748272 0.212009 
-0.732866 -0.743182 0.214416 
-0.73431 -0.738918 0.216823 
-0.302727 -0.847931 0.409746 
-0.308367 -0.848069 0.406169 
-0.313456 -0.848 0.403006 
-0.318202 -0.847588 0.400323 
-0.324805 -0.846693 0.396884 
-0.332852 -0.844974 0.39317 
-0.340418 -0.842979 0.389938 
-0.347502 -0.84071 0.387255 
-0.354311 -0.838234 0.384917 
-0.360363 -0.835345 0.383404 
-0.366622 -0.832525 0.381684 
-0.372262 -0.829293 0.380653 
-0.377626 -0.825854 0.380034 
-0.382785 -0.822346 0.379552 
-0.387806 -0.818701 0.379277 
-0.392551 -0.814849 0.379277 
-0.397159 -0.810929 0.379415 
-0.401561 -0.806802 0.379965 
-0.405619 -0.802469 0.38079 
-0.409402 -0.79793 0.381959 
-0.412566 -0.792771 0.383954 
-0.414285 -0.786513 0.387806 
-0.414698 -0.779153 0.39317 
-0.414423 -0.773101 0.398054 
-0.414079 -0.768974 0.401561 
-0.413597 -0.764641 0.405138 
-0.413047 -0.760239 0.408921 
-0.542075 -0.852677 0.25527 
-0.547096 -0.853365 0.251556 
-0.55191 -0.853915 0.248117 
-0.556656 -0.854397 0.244816 
-0.560989 -0.854603 0.241927 
-0.56711 -0.854603 0.238144 
-0.57502 -0.854397 0.233399 
-0.582379 -0.853846 0.229134 
-0.589394 -0.85309 0.225214 
-0.59641 -0.852196 0.221362 
-0.603013 -0.851164 0.217855 
-0.609271 -0.849789 0.214897 
-0.615186 -0.848138 0.212421 
-0.621032 -0.846418 0.210014 
-0.626603 -0.844561 0.207951 
-0.632243 -0.842704 0.205887 
-0.637608 -0.84071 0.20403 
-0.642629 -0.838303 0.202792 
-0.647718 -0.836033 0.201348 
-0.652808 -0.833832 0.199904 
-0.657485 -0.831218 0.198941 
-0.66223 -0.828605 0.198047 
-0.66677 -0.825922 0.197221 
-0.67124 -0.823103 0.196602 
-0.675573 -0.820145 0.196258 
-0.6797 -0.81705 0.196052 
-0.683758 -0.813955 0.195915 
-0.687541 -0.810447 0.196258 
-0.691255 -0.80694 0.196602 
-0.695106 -0.803501 0.196877 
-0.698889 -0.799993 0.19729 
-0.702191 -0.796004 0.198322 
-0.70563 -0.792221 0.199078 
-0.709068 -0.788301 0.199904 
-0.71237 -0.784312 0.201004 
-0.715534 -0.780116 0.202311 
-0.718629 -0.775921 0.203618 
-0.721724 -0.771588 0.204993 
-0.724612 -0.767117 0.206644 
-0.727432 -0.762509 0.208501 
-0.730115 -0.757695 0.210564 
-0.732797 -0.752811 0.212696 
-0.735204 -0.747653 0.215172 
-0.737611 -0.742357 0.217786 
-0.308642 -0.850339 0.409952 
-0.313869 -0.85027 0.406788 
-0.318821 -0.850064 0.4039 
-0.325561 -0.849238 0.400254 
-0.333815 -0.847725 0.396265 
-0.341724 -0.845937 0.39262 
-0.348808 -0.843667 0.389938 
-0.355686 -0.84126 0.387462 
-0.362151 -0.838578 0.385536 
-0.368204 -0.835689 0.384023 
-0.373912 -0.832525 0.382991 
-0.379483 -0.829224 0.382028 
-0.384573 -0.825647 0.381616 
-0.389594 -0.822002 0.381409 
-0.394477 -0.818288 0.381272 
-0.399154 -0.814505 0.381272 
-0.403556 -0.810379 0.381753 
-0.40782 -0.806183 0.382372 
-0.411397 -0.801506 0.383748 
-0.414698 -0.796554 0.385536 
-0.416899 -0.790639 0.388768 
-0.417793 -0.783693 0.393652 
-0.417862 -0.777984 0.398054 
-0.417587 -0.773926 0.401355 
-0.417311 -0.7698 0.404725 
-0.416968 -0.765604 0.408233 
-0.41628 -0.761133 0.412084 
-0.545995 -0.854259 0.257196 
-0.551154 -0.855084 0.253344 
-0.555899 -0.855635 0.249905 
-0.560576 -0.856116 0.246673 
-0.565047 -0.856391 0.243647 
-0.571306 -0.85646 0.239657 
-0.579009 -0.856116 0.235049 
-0.586506 -0.855772 0.230579 
-0.593452 -0.854947 0.226658 
-0.600193 -0.853984 0.223013 
-0.606795 -0.852884 0.219643 
-0.612985 -0.851439 0.216754 
-0.619107 -0.849995 0.214003 
-0.624884 -0.848275 0.211665 
-0.630455 -0.84635 0.20967 
-0.635957 -0.844424 0.207676 
-0.641322 -0.842429 0.205819 
-0.64648 -0.840228 0.204374 
-0.65157 -0.838027 0.202861 
-0.656591 -0.835689 0.201554 
-0.661336 -0.833144 0.200591 
-0.665876 -0.830393 0.199835 
-0.670484 -0.827779 0.19901 
-0.674886 -0.82496 0.198459 
-0.67915 -0.822002 0.198115 
-0.683277 -0.818838 0.197978 
-0.687472 -0.815812 0.197634 
-0.691324 -0.812511 0.19784 
-0.694969 -0.808934 0.198253 
-0.69882 -0.805495 0.198597 
-0.702397 -0.801919 0.199147 
-0.705836 -0.798067 0.199972 
-0.709344 -0.794285 0.200729 
-0.712645 -0.790295 0.201761 
-0.716015 -0.786375 0.202724 
-0.719179 -0.782248 0.203962 
-0.722343 -0.778053 0.2052 
-0.7253 -0.773651 0.206782 
-0.72812 -0.769043 0.208639 
-0.731009 -0.764572 0.210289 
-0.733829 -0.759895 0.212146 
-0.73658 -0.75515 0.21421 
-0.738987 -0.75006 0.216617 
-0.741257 -0.744627 0.219368 
-0.74277 -0.740362 0.221775 
-0.313594 -0.852196 0.411328 
-0.31889 -0.852196 0.408026 
-0.32398 -0.852058 0.404863 
-0.330651 -0.851233 0.401286 
-0.339042 -0.849857 0.397091 
-0.346676 -0.847863 0.393858 
-0.353898 -0.845731 0.390969 
-0.360707 -0.843323 0.388562 
-0.366966 -0.840503 0.386911 
-0.37295 -0.837546 0.385398 
-0.378589 -0.834382 0.384435 
-0.383954 -0.830943 0.383748 
-0.389112 -0.827504 0.383266 
-0.394064 -0.823859 0.38306 
-0.398673 -0.819939 0.383266 
-0.403281 -0.816018 0.383473 
-0.407683 -0.811961 0.383885 
-0.411878 -0.807765 0.384504 
-0.415661 -0.803226 0.385673 
-0.418687 -0.797999 0.387874 
-0.420682 -0.792015 0.391313 
-0.421301 -0.784862 0.39654 
-0.421369 -0.779153 0.400942 
-0.421163 -0.775095 0.404244 
-0.420819 -0.770969 0.407682 
-0.420407 -0.766705 0.41119 
-0.419719 -0.762234 0.415111 
-0.549778 -0.855772 0.259259 
-0.555005 -0.856666 0.255339 
-0.559957 -0.857354 0.251694 
-0.564634 -0.857836 0.248461 
-0.568899 -0.857973 0.245641 
-0.575089 -0.858042 0.241721 
-0.582792 -0.857836 0.236975 
-0.590082 -0.857285 0.232642 
-0.597373 -0.856735 0.228309 
-0.604113 -0.855772 0.224733 
-0.610716 -0.854603 0.221431 
-0.616974 -0.853296 0.218474 
-0.622889 -0.851714 0.215929 
-0.628736 -0.850064 0.213522 
-0.634444 -0.848275 0.211321 
-0.639878 -0.84635 0.209395 
-0.645242 -0.844355 0.207607 
-0.650332 -0.842085 0.206163 
-0.655353 -0.839884 0.204718 
-0.660373 -0.837546 0.203411 
-0.665188 -0.83507 0.202311 
-0.669865 -0.832525 0.201348 
-0.674404 -0.829843 0.200591 
-0.678806 -0.826954 0.20011 
-0.683002 -0.824065 0.199697 
-0.687335 -0.821177 0.199285 
-0.691324 -0.817875 0.199353 
-0.695106 -0.814437 0.199697 
-0.698889 -0.811066 0.199835 
-0.702672 -0.807628 0.200248 
-0.706249 -0.804051 0.200798 
-0.709825 -0.800337 0.201486 
-0.713264 -0.796554 0.202242 
-0.716634 -0.792634 0.203205 
-0.719798 -0.788507 0.204443 
-0.722962 -0.78438 0.205681 
-0.726194 -0.780323 0.20685 
-0.729289 -0.776127 0.208157 
-0.732178 -0.771657 0.209808 
-0.734929 -0.766911 0.211802 
-0.73768 -0.762303 0.213659 
-0.740431 -0.757488 0.215654 
-0.742907 -0.752536 0.217992 
-0.745246 -0.74724 0.220675 
-0.747378 -0.741669 0.223701 
-0.319578 -0.854465 0.411328 
-0.324805 -0.854465 0.408026 
-0.329688 -0.85419 0.405206 
-0.334159 -0.85364 0.402799 
-0.340418 -0.85254 0.399704 
-0.348121 -0.850751 0.396265 
-0.355549 -0.848688 0.39317 
-0.362495 -0.84635 0.390626 
-0.368892 -0.843736 0.3887 
-0.374875 -0.840779 0.387255 
-0.38079 -0.837752 0.385949 
-0.386017 -0.834313 0.385398 
-0.391176 -0.830737 0.384986 
-0.396059 -0.827092 0.384779 
-0.400942 -0.823378 0.384711 
-0.405413 -0.819389 0.385054 
-0.409883 -0.815399 0.385398 
-0.414079 -0.811135 0.386155 
-0.417724 -0.806596 0.387393 
-0.420957 -0.801644 0.38925 
-0.423226 -0.795866 0.392345 
-0.424464 -0.789264 0.396747 
-0.424808 -0.783761 0.400805 
-0.42474 -0.779841 0.4039 
-0.424464 -0.775783 0.40727 
-0.424052 -0.771588 0.410846 
-0.423433 -0.767117 0.414698 
-0.554386 -0.857767 0.260428 
-0.559407 -0.858455 0.256783 
-0.564153 -0.859005 0.253413 
-0.568692 -0.859417 0.250249 
-0.573094 -0.859624 0.247292 
-0.577289 -0.859761 0.244541 
-0.583204 -0.859693 0.240758 
-0.59077 -0.859417 0.23615 
-0.597992 -0.858867 0.231886 
-0.60487 -0.857973 0.228103 
-0.611472 -0.856804 0.224801 
-0.617937 -0.855772 0.2215 
-0.624127 -0.854397 0.218611 
-0.63018 -0.852952 0.215998 
-0.635751 -0.851095 0.213866 
-0.641322 -0.849238 0.211871 
-0.646687 -0.847244 0.210014 
-0.651845 -0.845112 0.208432 
-0.657003 -0.842979 0.206919 
-0.662093 -0.84071 0.205475 
-0.666907 -0.838234 0.204374 
-0.671653 -0.835827 0.203343 
-0.676192 -0.833144 0.202517 
-0.680663 -0.830393 0.201898 
-0.684996 -0.827504 0.201417 
-0.689123 -0.824478 0.20121 
-0.693181 -0.821383 0.201142 
-0.69717 -0.818151 0.201142 
-0.70109 -0.814918 0.20121 
-0.704873 -0.81141 0.201554 
-0.708449 -0.807903 0.202036 
-0.712026 -0.804257 0.202655 
-0.715465 -0.800475 0.20348 
-0.718904 -0.796692 0.204237 
-0.722274 -0.79284 0.2052 
-0.725506 -0.788782 0.2063 
-0.728533 -0.784449 0.207882 
-0.731628 -0.780323 0.20912 
-0.734516 -0.775852 0.210771 
-0.737405 -0.771313 0.212559 
-0.740294 -0.766842 0.21421 
-0.742976 -0.762028 0.216342 
-0.745658 -0.757282 0.218336 
-0.748066 -0.752124 0.220881 
-0.750267 -0.74669 0.223701 
-0.752261 -0.74105 0.226865 
-0.320678 -0.856391 0.413873 
-0.325905 -0.856322 0.410571 
-0.330857 -0.856116 0.407614 
-0.335465 -0.855635 0.405138 
-0.33973 -0.855016 0.402937 
-0.343788 -0.85419 0.400942 
-0.347777 -0.853365 0.399085 
-0.353692 -0.852127 0.396403 
-0.360638 -0.849789 0.393858 
-0.367516 -0.84745 0.391382 
-0.373775 -0.84463 0.389663 
-0.379621 -0.841673 0.388425 
-0.385123 -0.838371 0.38753 
-0.390557 -0.83507 0.386774 
-0.395509 -0.831494 0.386568 
-0.400392 -0.827779 0.386361 
-0.405 -0.823928 0.386568 
-0.409402 -0.81987 0.386911 
-0.413804 -0.815812 0.387393 
-0.417862 -0.811479 0.388287 
-0.421301 -0.806733 0.389938 
-0.424189 -0.801575 0.392139 
-0.426321 -0.79566 0.39544 
-0.42694 -0.790433 0.399154 
-0.427078 -0.786719 0.401974 
-0.427078 -0.782936 0.404931 
-0.426803 -0.778809 0.40837 
-0.426459 -0.774683 0.41174 
-0.426115 -0.770487 0.415248 
-0.559476 -0.859486 0.260772 
-0.564634 -0.86038 0.256921 
-0.569449 -0.860931 0.253413 
-0.573988 -0.861412 0.250249 
-0.578252 -0.86155 0.247361 
-0.58231 -0.86155 0.244816 
-0.586162 -0.861412 0.24234 
-0.590013 -0.861343 0.240001 
-0.593727 -0.861137 0.237732 
-0.59923 -0.860862 0.23443 
-0.606176 -0.860036 0.230579 
-0.612848 -0.859074 0.227071 
-0.619382 -0.857973 0.22377 
-0.625572 -0.856598 0.220881 
-0.631418 -0.854947 0.218474 
-0.637195 -0.853296 0.216204 
-0.642698 -0.851439 0.21421 
-0.648062 -0.849445 0.212353 
-0.653427 -0.84745 0.210564 
-0.658654 -0.845387 0.208914 
-0.663606 -0.843117 0.207607 
-0.668421 -0.840641 0.206575 
-0.673235 -0.838234 0.205406 
-0.677843 -0.835689 0.204512 
-0.682314 -0.832938 0.203893 
-0.686647 -0.830049 0.203411 
-0.69098 -0.827298 0.202861 
-0.695038 -0.824134 0.202724 
-0.699027 -0.82097 0.202724 
-0.703016 -0.817807 0.202724 
-0.706799 -0.814368 0.203067 
-0.710444 -0.810791 0.203549 
-0.71402 -0.807215 0.204168 
-0.717459 -0.80357 0.204787 
-0.720898 -0.799718 0.205681 
-0.724268 -0.795866 0.206575 
-0.727501 -0.791877 0.207676 
-0.730527 -0.787613 0.20912 
-0.733622 -0.783486 0.210427 
-0.736717 -0.779222 0.211871 
-0.739743 -0.77482 0.213384 
-0.742495 -0.770281 0.215241 
-0.745108 -0.765466 0.217373 
-0.747791 -0.760721 0.219368 
-0.750335 -0.7557 0.221775 
-0.752605 -0.750473 0.224389 
-0.754806 -0.745039 0.227346 
-0.326387 -0.85756 0.41346 
-0.33182 -0.857698 0.409883 
-0.336772 -0.85756 0.406857 
-0.341243 -0.85701 0.40445 
-0.34537 -0.856254 0.402455 
-0.34929 -0.85536 0.400667 
-0.353141 -0.854465 0.399016 
-0.356855 -0.853503 0.397435 
-0.362151 -0.851783 0.395371 
-0.36896 -0.849376 0.393033 
-0.375219 -0.846693 0.391245 
-0.381272 -0.843736 0.3898 
-0.386568 -0.840366 0.389112 
-0.391932 -0.837065 0.388493 
-0.396884 -0.833419 0.388218 
-0.401836 -0.829843 0.387943 
-0.406376 -0.825922 0.388218 
-0.410778 -0.821865 0.3887 
-0.415179 -0.817875 0.389112 
-0.419306 -0.813611 0.389938 
-0.422745 -0.808866 0.39152 
-0.425634 -0.803638 0.393789 
-0.427628 -0.797723 0.397228 
-0.428522 -0.792703 0.400598 
-0.428797 -0.789057 0.403281 
-0.428866 -0.785343 0.406169 
-0.428729 -0.781423 0.409333 
-0.428385 -0.777228 0.412772 
-0.427972 -0.773032 0.416349 
-0.427422 -0.768699 0.420131 
-0.560026 -0.860862 0.263523 
-0.565116 -0.861687 0.259672 
-0.569999 -0.862375 0.256164 
-0.574538 -0.862719 0.253 
-0.578803 -0.862925 0.250112 
-0.582998 -0.863063 0.247292 
-0.587056 -0.863063 0.244678 
-0.59077 -0.862925 0.24234 
-0.594484 -0.862719 0.240139 
-0.598198 -0.862581 0.237869 
-0.601775 -0.862306 0.235737 
-0.605282 -0.861962 0.233811 
-0.60879 -0.86155 0.231886 
-0.613879 -0.860862 0.229134 
-0.620345 -0.859761 0.225971 
-0.626603 -0.858455 0.222944 
-0.632518 -0.856873 0.220537 
-0.638433 -0.855428 0.217924 
-0.643936 -0.853434 0.215998 
-0.649438 -0.851646 0.214003 
-0.654665 -0.849582 0.212284 
-0.659754 -0.847381 0.210839 
-0.664706 -0.845112 0.209533 
-0.669659 -0.842842 0.208226 
-0.674542 -0.840435 0.207057 
-0.679081 -0.837821 0.2063 
-0.68362 -0.835208 0.205544 
-0.688022 -0.832388 0.204924 
-0.692218 -0.82943 0.204581 
-0.696276 -0.826335 0.204512 
-0.700402 -0.823309 0.204305 
-0.70446 -0.820283 0.204168 
-0.708174 -0.816844 0.204512 
-0.711888 -0.813405 0.204924 
-0.715465 -0.809691 0.205544 
-0.718904 -0.806046 0.206231 
-0.722274 -0.802194 0.207194 
-0.725644 -0.798342 0.208088 
-0.729014 -0.794491 0.208982 
-0.732247 -0.790433 0.210152 
-0.735273 -0.786237 0.211596 
-0.738162 -0.781767 0.213247 
-0.741119 -0.777365 0.214829 
-0.743939 -0.772826 0.216686 
-0.74669 -0.768218 0.218611 
-0.749579 -0.763678 0.220331 
-0.752055 -0.758795 0.2226 
-0.754393 -0.753568 0.225214 
-0.756525 -0.748134 0.228172 
-0.758107 -0.743939 0.230441 
-0.326593 -0.859142 0.416417 
-0.331614 -0.859005 0.413322 
-0.336703 -0.858867 0.410227 
-0.341449 -0.858592 0.407407 
-0.345782 -0.857973 0.405206 
-0.349771 -0.857148 0.403349 
-0.35376 -0.856322 0.401492 
-0.35775 -0.855428 0.399635 
-0.363183 -0.853915 0.397366 
-0.370061 -0.851577 0.39489 
-0.376251 -0.848826 0.393239 
-0.382166 -0.845868 0.391795 
-0.387737 -0.842636 0.390901 
-0.392895 -0.839197 0.390488 
-0.398122 -0.835758 0.389869 
-0.403006 -0.832181 0.389731 
-0.407683 -0.82833 0.389869 
-0.412153 -0.824341 0.390213 
-0.416349 -0.820145 0.390901 
-0.420338 -0.815881 0.391864 
-0.424052 -0.811273 0.39317 
-0.427353 -0.806458 0.39489 
-0.429554 -0.800681 0.398054 
-0.430654 -0.795935 0.401149 
-0.430998 -0.792359 0.403693 
-0.431205 -0.788714 0.406444 
-0.431067 -0.784793 0.409608 
-0.430654 -0.780598 0.413116 
-0.430173 -0.776333 0.41683 
-0.429554 -0.772 0.420613 
-0.563947 -0.862031 0.264349 
-0.569105 -0.862925 0.260428 
-0.573919 -0.863613 0.256921 
-0.57839 -0.863957 0.253826 
-0.582792 -0.864232 0.2508 
-0.586918 -0.864301 0.24798 
-0.590701 -0.864163 0.245641 
-0.594415 -0.863957 0.243371 
-0.598129 -0.863819 0.241102 
-0.601775 -0.863613 0.23897 
-0.605282 -0.863269 0.236975 
-0.608859 -0.862925 0.234843 
-0.614155 -0.862375 0.231954 
-0.620688 -0.861343 0.228653 
-0.627085 -0.860243 0.225489 
-0.633137 -0.858798 0.222807 
-0.638846 -0.857079 0.220537 
-0.644486 -0.85536 0.218336 
-0.649919 -0.853434 0.216479 
-0.655284 -0.851508 0.214553 
-0.660442 -0.849445 0.21304 
-0.665601 -0.847312 0.211527 
-0.670415 -0.844836 0.210427 
-0.675161 -0.842429 0.209258 
-0.679906 -0.839953 0.208295 
-0.684446 -0.83734 0.207469 
-0.688985 -0.834726 0.206713 
-0.693318 -0.831906 0.206231 
-0.697514 -0.829018 0.205887 
-0.701572 -0.825922 0.20575 
-0.705423 -0.82269 0.205819 
-0.709206 -0.81932 0.206094 
-0.712989 -0.81595 0.206369 
-0.716634 -0.812304 0.206919 
-0.720348 -0.808866 0.207401 
-0.723718 -0.805083 0.208226 
-0.727088 -0.8013 0.20912 
-0.730321 -0.79738 0.210152 
-0.733553 -0.793253 0.211321 
-0.736511 -0.789057 0.212765 
-0.739606 -0.784862 0.214141 
-0.742701 -0.780598 0.215585 
-0.745658 -0.776265 0.217236 
-0.748272 -0.771519 0.21923 
-0.750954 -0.766842 0.221225 
-0.753705 -0.762165 0.223219 
-0.756113 -0.757076 0.225696 
-0.758382 -0.75178 0.228447 
-0.760171 -0.747791 0.230441 
-0.33636 -0.860655 0.414423 
-0.341449 -0.860518 0.411328 
-0.346057 -0.860174 0.408714 
-0.350528 -0.859693 0.406238 
-0.356787 -0.858592 0.403143 
-0.364077 -0.856598 0.400117 
-0.371093 -0.854328 0.397503 
-0.377283 -0.851577 0.395784 
-0.383404 -0.848757 0.394202 
-0.38925 -0.845799 0.392895 
-0.394683 -0.842498 0.392139 
-0.399498 -0.838853 0.392001 
-0.40445 -0.835276 0.391726 
-0.409127 -0.831425 0.391795 
-0.413666 -0.827573 0.392001 
-0.41793 -0.823446 0.392689 
-0.421988 -0.819182 0.393514 
-0.42584 -0.814712 0.394683 
-0.429073 -0.809828 0.39654 
-0.431824 -0.804532 0.399016 
-0.433612 -0.798411 0.40273 
-0.4343 -0.793322 0.406376 
-0.4343 -0.789539 0.409333 
-0.434231 -0.785618 0.412497 
-0.434025 -0.781561 0.415798 
-0.433543 -0.777365 0.419375 
-0.432855 -0.772895 0.423295 
-0.567592 -0.863613 0.266068 
-0.572613 -0.864301 0.262354 
-0.577221 -0.864851 0.258984 
-0.581691 -0.865195 0.255889 
-0.586093 -0.865539 0.252725 
-0.590357 -0.865745 0.249768 
-0.596203 -0.865745 0.245985 
-0.603632 -0.865401 0.241446 
-0.610784 -0.864782 0.237319 
-0.617525 -0.863888 0.233811 
-0.624127 -0.862856 0.230372 
-0.630317 -0.861618 0.227484 
-0.636301 -0.860174 0.224801 
-0.642216 -0.858661 0.222325 
-0.647925 -0.85701 0.220056 
-0.653427 -0.855153 0.218061 
-0.658654 -0.853159 0.216273 
-0.663812 -0.851027 0.21476 
-0.668902 -0.848826 0.213315 
-0.673923 -0.846625 0.21194 
-0.6786 -0.844149 0.210908 
-0.683277 -0.841673 0.209877 
-0.687954 -0.839197 0.208982 
-0.692287 -0.836446 0.208363 
-0.696688 -0.833694 0.207813 
-0.700746 -0.830599 0.207676 
-0.704804 -0.827504 0.207538 
-0.709 -0.824547 0.207263 
-0.712714 -0.821246 0.207469 
-0.716428 -0.817875 0.207813 
-0.720142 -0.814437 0.208295 
-0.723581 -0.810723 0.208982 
-0.72702 -0.807009 0.209739 
-0.730321 -0.803157 0.210702 
-0.733691 -0.799305 0.211665 
-0.736992 -0.795385 0.212696 
-0.740087 -0.791258 0.214003 
-0.743114 -0.786994 0.215379 
-0.746071 -0.782661 0.216961 
-0.748822 -0.778122 0.218818 
-0.751573 -0.773514 0.220743 
-0.754393 -0.768974 0.2226 
-0.756938 -0.764091 0.224801 
-0.759552 -0.759276 0.226934 
-0.76189 -0.754049 0.229616 
-0.764022 -0.748616 0.232573 
-0.341999 -0.8632 0.415179 
-0.349221 -0.862856 0.410846 
-0.357612 -0.861481 0.406582 
-0.365522 -0.85983 0.402937 
-0.372674 -0.857767 0.400048 
-0.379483 -0.85536 0.397641 
-0.385674 -0.852677 0.395921 
-0.391176 -0.849445 0.394959 
-0.39654 -0.846143 0.394271 
-0.40163 -0.842704 0.393789 
-0.406445 -0.83899 0.393652 
-0.41119 -0.835276 0.393652 
-0.415661 -0.831287 0.394064 
-0.419856 -0.827229 0.394683 
-0.423777 -0.822896 0.395578 
-0.427766 -0.818563 0.396609 
-0.431273 -0.813886 0.398122 
-0.434162 -0.808659 0.40053 
-0.436294 -0.802882 0.403762 
-0.437601 -0.796348 0.408233 
-0.437532 -0.788714 0.414285 
-0.437051 -0.782592 0.419375 
-0.436638 -0.778397 0.422951 
-0.436088 -0.774064 0.426734 
-0.571581 -0.865607 0.267994 
-0.576602 -0.866433 0.264211 
-0.581347 -0.867052 0.260635 
-0.585887 -0.867464 0.257333 
-0.592146 -0.867671 0.253069 
-0.599849 -0.867602 0.248117 
-0.607483 -0.867464 0.243303 
-0.614567 -0.866777 0.239314 
-0.621376 -0.865951 0.2356 
-0.62791 -0.864988 0.232298 
-0.634307 -0.863819 0.229134 
-0.640428 -0.862512 0.226315 
-0.646343 -0.861068 0.22377 
-0.651707 -0.859142 0.221913 
-0.657072 -0.857217 0.219987 
-0.662506 -0.855291 0.21813 
-0.667595 -0.853227 0.216548 
-0.672754 -0.851164 0.214966 
-0.677568 -0.848826 0.213797 
-0.682382 -0.846418 0.212628 
-0.686991 -0.843942 0.211734 
-0.69153 -0.841329 0.210908 
-0.696069 -0.838784 0.210083 
-0.700334 -0.835895 0.209601 
-0.704598 -0.833075 0.209189 
-0.709687 -0.829361 0.208914 
-0.715465 -0.824409 0.209189 
-0.720142 -0.820283 0.209533 
-0.724681 -0.815812 0.21022 
-0.729083 -0.811342 0.210908 
-0.732522 -0.807559 0.211802 
-0.735823 -0.803776 0.212696 
-0.739124 -0.799856 0.213728 
-0.74222 -0.795798 0.214966 
-0.745246 -0.791602 0.21641 
-0.748272 -0.787338 0.217855 
-0.751229 -0.783074 0.219437 
-0.754049 -0.778603 0.221087 
-0.756732 -0.773926 0.223151 
-0.759414 -0.769249 0.225145 
-0.761959 -0.764366 0.227415 
-0.764435 -0.759414 0.229753 
-0.766705 -0.754118 0.232505 
-0.768905 -0.748753 0.235393 
-0.347089 -0.865607 0.416761 
-0.354448 -0.865332 0.412291 
-0.362908 -0.864026 0.407889 
-0.370611 -0.862237 0.40445 
-0.377489 -0.859968 0.401905 
-0.383885 -0.857423 0.399842 
-0.3898 -0.854534 0.398466 
-0.395578 -0.851508 0.397228 
-0.400874 -0.848207 0.396472 
-0.405963 -0.844699 0.396197 
-0.410709 -0.840985 0.396128 
-0.415179 -0.837065 0.396403 
-0.419788 -0.833282 0.396609 
-0.423845 -0.829086 0.397366 
-0.427766 -0.824753 0.398466 
-0.431617 -0.820351 0.399498 
-0.434919 -0.815468 0.401217 
-0.437876 -0.810379 0.403487 
-0.439802 -0.804464 0.407063 
-0.440696 -0.797586 0.412016 
-0.440627 -0.789883 0.418137 
-0.440352 -0.783968 0.42302 
-0.439871 -0.779704 0.426665 
-0.580316 -0.868427 0.266687 
-0.58513 -0.869115 0.262973 
-0.591802 -0.869665 0.258159 
-0.600193 -0.870147 0.252313 
-0.607758 -0.869941 0.247636 
-0.615117 -0.869597 0.243165 
-0.621927 -0.868771 0.239451 
-0.628392 -0.867671 0.236219 
-0.634788 -0.86657 0.233055 
-0.640978 -0.865332 0.230166 
-0.647031 -0.863957 0.227415 
-0.652877 -0.862444 0.224939 
-0.658241 -0.860518 0.223082 
-0.663675 -0.85873 0.221087 
-0.668764 -0.856598 0.219574 
-0.673854 -0.854397 0.218061 
-0.678668 -0.852127 0.216823 
-0.683483 -0.849789 0.215654 
-0.688297 -0.84745 0.214485 
-0.694006 -0.844286 0.213315 
-0.700677 -0.840366 0.212284 
-0.707005 -0.836033 0.211734 
-0.713195 -0.831631 0.211252 
-0.71911 -0.826885 0.211321 
-0.724681 -0.821796 0.211802 
-0.729977 -0.8165 0.212696 
-0.735204 -0.810998 0.213797 
-0.740225 -0.805289 0.215172 
-0.744971 -0.799305 0.216823 
-0.748891 -0.794216 0.218405 
-0.751848 -0.79002 0.219918 
-0.754806 -0.785687 0.2215 
-0.757626 -0.781217 0.223219 
-0.760308 -0.77654 0.225283 
-0.763059 -0.772 0.22714 
-0.765604 -0.767117 0.22941 
-0.768149 -0.762234 0.231679 
-0.770487 -0.757007 0.234293 
-0.772482 -0.751505 0.237388 
-0.77372 -0.746965 0.240276 
-0.351078 -0.867602 0.419237 
-0.358231 -0.867189 0.414973 
-0.366897 -0.86602 0.410365 
-0.3746 -0.864301 0.406788 
-0.381616 -0.862169 0.404106 
-0.387943 -0.859486 0.402249 
-0.393721 -0.856529 0.401011 
-0.399429 -0.853503 0.399773 
-0.404725 -0.850201 0.399085 
-0.409677 -0.846693 0.39881 
-0.414423 -0.842979 0.39881 
-0.419031 -0.839197 0.39881 
-0.423226 -0.83507 0.399498 
-0.427284 -0.830875 0.400323 
-0.431273 -0.82661 0.401217 
-0.435056 -0.82214 0.402455 
-0.438358 -0.817325 0.404244 
-0.441109 -0.812098 0.406651 
-0.443035 -0.806114 0.410296 
-0.443929 -0.799305 0.415248 
-0.444066 -0.791809 0.421163 
-0.443722 -0.785756 0.426184 
-0.443103 -0.781423 0.429967 
-0.583136 -0.869941 0.269989 
-0.58795 -0.870628 0.266275 
-0.592489 -0.87111 0.262904 
-0.598955 -0.871591 0.258296 
-0.606933 -0.871798 0.253 
-0.614498 -0.871591 0.248255 
-0.621789 -0.871179 0.243922 
-0.62846 -0.870284 0.240345 
-0.634994 -0.869322 0.237044 
-0.641253 -0.868152 0.234018 
-0.647237 -0.866708 0.231404 
-0.653014 -0.865195 0.228928 
-0.658585 -0.863475 0.226796 
-0.664156 -0.861756 0.224595 
-0.669383 -0.859761 0.222944 
-0.674542 -0.857698 0.221362 
-0.679494 -0.855566 0.219918 
-0.684446 -0.853296 0.218543 
-0.689192 -0.850958 0.217373 
-0.6938 -0.848413 0.216548 
-0.699508 -0.845318 0.21531 
-0.706111 -0.841329 0.214347 
-0.71237 -0.836927 0.213797 
-0.718422 -0.832456 0.213591 
-0.724337 -0.827779 0.213522 
-0.729839 -0.822621 0.21421 
-0.735135 -0.817256 0.215104 
-0.740362 -0.811823 0.216135 
-0.745246 -0.805977 0.217648 
-0.749923 -0.799924 0.219505 
-0.753843 -0.794835 0.221087 
-0.756732 -0.790571 0.222669 
-0.75962 -0.786237 0.22432 
-0.76244 -0.781767 0.226039 
-0.765191 -0.777159 0.228034 
-0.767805 -0.772413 0.230097 
-0.770281 -0.767461 0.232505 
-0.772688 -0.76244 0.234981 
-0.775095 -0.757351 0.237457 
-0.777228 -0.751917 0.240414 
-0.359744 -0.86939 0.418481 
-0.366484 -0.868703 0.414767 
-0.3746 -0.867258 0.41064 
-0.381891 -0.865264 0.407614 
-0.388493 -0.862856 0.405413 
-0.394615 -0.860105 0.403693 
-0.400392 -0.857148 0.402455 
-0.405894 -0.853984 0.401492 
-0.410984 -0.850476 0.401011 
-0.41573 -0.846831 0.400942 
-0.4202 -0.842979 0.401217 
-0.424464 -0.838922 0.401768 
-0.428797 -0.834932 0.402249 
-0.432718 -0.830668 0.403212 
-0.436432 -0.826266 0.40445 
-0.439939 -0.821589 0.405963 
-0.443035 -0.816569 0.408095 
-0.445373 -0.810998 0.411053 
-0.44668 -0.804532 0.415454 
-0.447368 -0.797517 0.42075 
-0.447161 -0.791671 0.425496 
-0.446886 -0.787613 0.428935 
-0.446336 -0.78328 0.432718 
-0.590082 -0.871798 0.26992 
-0.594897 -0.872554 0.266137 
-0.599436 -0.873104 0.262698 
-0.605626 -0.873379 0.258434 
-0.613673 -0.873655 0.253138 
-0.621032 -0.873311 0.248667 
-0.627841 -0.872485 0.244953 
-0.634513 -0.87166 0.241377 
-0.640978 -0.870628 0.238144 
-0.647168 -0.869459 0.235118 
-0.653152 -0.868015 0.232505 
-0.65886 -0.866433 0.230166 
-0.664294 -0.864713 0.228103 
-0.669727 -0.862788 0.226177 
-0.674817 -0.860724 0.224595 
-0.679975 -0.85873 0.222944 
-0.684859 -0.856529 0.221569 
-0.689673 -0.854259 0.220331 
-0.694487 -0.851921 0.219093 
-0.699096 -0.849445 0.21813 
-0.703566 -0.8469 0.217373 
-0.707968 -0.844217 0.216754 
-0.712301 -0.841466 0.216135 
-0.716496 -0.838646 0.215723 
-0.720554 -0.835689 0.215516 
-0.725506 -0.831837 0.215448 
-0.730183 -0.827711 0.215791 
-0.733897 -0.824341 0.216204 
-0.737543 -0.820902 0.216617 
-0.740981 -0.817256 0.217305 
-0.74442 -0.813542 0.218061 
-0.747722 -0.80976 0.219024 
-0.750886 -0.805839 0.220124 
-0.754049 -0.80185 0.221362 
-0.757007 -0.797586 0.222807 
-0.760102 -0.793528 0.224114 
-0.762784 -0.788989 0.226039 
-0.765604 -0.784518 0.227759 
-0.768493 -0.780116 0.229478 
-0.771038 -0.775302 0.231679 
-0.773651 -0.770625 0.233811 
-0.776127 -0.765604 0.23615 
-0.778397 -0.760446 0.238832 
-0.780598 -0.755081 0.241721 
-0.782386 -0.749166 0.245366 
-0.363321 -0.870903 0.420406 
-0.368066 -0.870628 0.417449 
-0.374394 -0.869734 0.414148 
-0.381822 -0.867877 0.410984 
-0.388837 -0.865745 0.408164 
-0.395371 -0.863269 0.406101 
-0.401011 -0.860174 0.404931 
-0.406376 -0.85701 0.404106 
-0.411672 -0.853709 0.403418 
-0.416555 -0.850132 0.403212 
-0.421163 -0.846418 0.403281 
-0.425634 -0.842498 0.403625 
-0.429898 -0.83844 0.404175 
-0.433887 -0.834176 0.405 
-0.437601 -0.829774 0.406101 
-0.441177 -0.825235 0.407545 
-0.444273 -0.820283 0.409608 
